# .PCD v0.7 - Point Cloud Data file format
VERSION 0.7
FIELDS x y z
SIZE 4 4 4
TYPE F F F
COUNT 1 1 1
WIDTH 1297
HEIGHT 1
VIEWPOINT 0 0 0 1 0 0 0
POINTS 1297
DATA ascii
-0.074905552 0.044683233 -0.12691164
-0.06546244 0.044688825 -0.1266534
-0.054712728 0.044465508 -0.12674524
-0.04493361 0.044761937 -0.12696749
-0.034741376 0.045088362 -0.12660967
-0.024771726 0.045098886 -0.12659355
-0.016128793 0.045222372 -0.12651013
-0.0097590247 0.045432974 -0.12519962
0.0096909795 0.045574855 -0.12404299
0.016032061 0.044899415 -0.12608588
0.024798498 0.044777956 -0.1267578
0.035460886 0.044801544 -0.12679626
0.044777736 0.045227233 -0.12669626
0.055246253 0.044779576 -0.12734711
0.064313933 0.044889621 -0.12683724
0.07495971 0.045229897 -0.12679626
0.085207023 0.044958793 -0.12670697
0.095559835 0.045069911 -0.12636521
0.10474509 0.045283549 -0.12541361
-0.10449592 0.055148859 -0.12535951
-0.095619373 0.055642065 -0.12679626
-0.084877051 0.054443683 -0.12744442
-0.075289667 0.05541249 -0.12650214
-0.064814374 0.054916993 -0.12622607
-0.05547709 0.054885626 -0.12648375
-0.044837844 0.05431775 -0.12696293
-0.035285931 0.054782469 -0.12696749
-0.024731765 0.055118859 -0.1264274
-0.015219897 0.055413488 -0.12650347
-0.009731668 0.054661881 -0.12473455
0.0097368602 0.054413211 -0.12482297
0.01593085 0.055250444 -0.12624525
0.025426874 0.055472128 -0.12691531
0.035081055 0.054663409 -0.12672272
0.045035932 0.055379927 -0.12634544
0.05513275 0.055184145 -0.12679626
0.065478846 0.055111878 -0.12705746
0.074867427 0.054774791 -0.12733199
0.084807217 0.05503593 -0.1266772
0.095866971 0.055509076 -0.12679626
0.10517716 0.055253334 -0.12595221
-0.10510916 0.064971887 -0.12563522
-0.0948084 0.064860769 -0.12658793
-0.085027948 0.065499753 -0.12725401
-0.074762732 0.064752005 -0.12708196
-0.064979948 0.064765044 -0.12695859
-0.055550039 0.06481003 -0.12656897
-0.045300998 0.065025218 -0.12628037
-0.034567297 0.065591022 -0.1264673
-0.024508229 0.065008499 -0.12736078
-0.01572085 0.064906336 -0.12694424
-0.0097686742 0.065150872 -0.12536362
0.0097300764 0.066008456 -0.1247077
0.01557845 0.064962052 -0.12666443
0.025293456 0.065036304 -0.12751544
0.035708744 0.065279722 -0.12674908
0.04467449 0.064817309 -0.12735182
0.05496062 0.064787343 -0.12643911
0.064991139 0.065116875 -0.1273915
0.075058654 0.064611606 -0.12701777
0.084739201 0.064715944 -0.1267205
0.09493497 0.065664984 -0.12679626
0.10435884 0.064692207 -0.12614115
-0.10440042 0.075262047 -0.1260348
-0.094669402 0.074869558 -0.12640563
-0.084837593 0.07502424 -0.12719481
-0.075043082 0.075231373 -0.12665474
-0.065334894 0.074904539 -0.12698856
-0.055143602 0.074242301 -0.12663497
-0.045002077 0.075246036 -0.12620801
-0.034112722 0.075377002 -0.12638716
-0.024721391 0.075022452 -0.12725082
-0.015820324 0.07485906 -0.12570843
-0.0097039146 0.075541705 -0.12426272
0.0097490698 0.07468991 -0.12503055
0.015170545 0.075567663 -0.12653111
0.02549994 0.074730925 -0.1268924
0.03514735 0.075072579 -0.12663497
0.044669017 0.075058013 -0.1266733
0.054683443 0.075240947 -0.12702352
0.065171219 0.075107068 -0.1265604
0.075537629 0.075289294 -0.12683724
0.084757991 0.075093552 -0.12659784
0.09464398 0.075409651 -0.12708847
0.1048425 0.075540759 -0.12459765
-0.10473046 0.085344687 -0.1255805
-0.094850935 0.085109934 -0.12691531
-0.085514039 0.085642785 -0.12696868
-0.07511884 0.085106179 -0.12672272
-0.065146774 0.084952205 -0.12671292
-0.055185433 0.085138358 -0.1277222
-0.045426194 0.084826395 -0.1272067
-0.034773879 0.085263222 -0.12696749
-0.025255704 0.0851219 -0.1271296
-0.015701478 0.085416138 -0.12659539
-0.0097269081 0.085722379 -0.12465357
0.0097560445 0.084178492 -0.12514915
0.015478278 0.084701322 -0.12667631
0.024987146 0.085095435 -0.12670368
0.03567725 0.085108101 -0.1270296
0.044908196 0.084892608 -0.12712234
0.054896757 0.084950238 -0.12683594
0.064963736 0.084671587 -0.12631379
0.074816503 0.08465369 -0.12666467
0.085193835 0.084629633 -0.12656188
0.095380448 0.085129783 -0.12621291
0.10519814 0.084830195 -0.12582636
-0.10452968 0.094888106 -0.12537172
-0.095305666 0.094802991 -0.12743612
-0.084447138 0.095429778 -0.12683864
-0.074918322 0.094935551 -0.12617125
-0.065103538 0.095303535 -0.1267578
-0.054835778 0.095617563 -0.12725922
-0.044993483 0.094961941 -0.12684172
-0.034743913 0.095145442 -0.12710328
-0.025274297 0.095226258 -0.12668756
-0.01643094 0.095468983 -0.1261844
-0.0098003922 0.094210364 -0.12560725
0.0097591002 0.09435796 -0.12520111
0.015064017 0.094697982 -0.12631175
0.025386944 0.094431661 -0.12700813
0.034693785 0.094766729 -0.12652703
0.045489203 0.094982393 -0.12696867
0.054969877 0.095201336 -0.12701686
0.065468237 0.095617168 -0.12655653
0.074139632 0.094483882 -0.12679626
0.084827214 0.094710343 -0.12696293
0.094941884 0.09530212 -0.1267108
0.10482588 0.094840668 -0.12554432
-0.10435404 0.1034384 -0.12525021
-0.09547051 0.10458119 -0.12626787
-0.085815042 0.10474642 -0.12580661
-0.075454898 0.10478508 -0.12496268
-0.0647332 0.1050126 -0.12565309
-0.054889344 0.10555238 -0.12579066
-0.04521089 0.10493926 -0.12576284
-0.03559573 0.10474169 -0.12578869
-0.025032986 0.10451087 -0.12567832
-0.014707983 0.10413112 -0.12520792
0.0097378148 0.10240879 -0.12393846
0.015001235 0.10568266 -0.12631813
0.025246844 0.10482759 -0.12550396
0.035275374 0.1043924 -0.12509179
0.044544224 0.10434944 -0.12524165
0.055026617 0.10461602 -0.12590151
0.06495472 0.10501882 -0.12529436
0.074819714 0.10496297 -0.1259229
0.08449357 0.10530106 -0.12548032
0.095150709 0.10460746 -0.12533161
0.10471472 0.10532907 -0.12629242
-0.10455818 -0.10490054 -0.11479849
-0.096208677 -0.10493398 -0.11547849
-0.084515721 -0.10600486 -0.11527353
-0.074752934 -0.10522939 -0.11530896
-0.06465289 -0.10620487 -0.11484358
-0.055262107 -0.10521431 -0.11493752
-0.044948161 -0.10565117 -0.11481369
-0.035215668 -0.10532623 -0.11455236
-0.024963874 -0.10574899 -0.11456043
-0.014784258 -0.10521244 -0.11491538
-0.0096144928 -0.10147467 -0.11349561
0.0092592072 -0.10232961 -0.11524685
0.015369998 -0.10639917 -0.11493739
0.024627689 -0.10540887 -0.11538143
0.034541808 -0.10591836 -0.11460128
0.045292292 -0.10554577 -0.11531015
0.055369675 -0.10554344 -0.11490308
0.064321741 -0.10611635 -0.11527914
0.074902579 -0.10556524 -0.11524211
0.084871277 -0.10571236 -0.11508337
0.095253877 -0.10503729 -0.11501804
0.10539358 -0.10578832 -0.11524362
-0.10585146 -0.094864383 -0.11454128
-0.099960566 -0.099909365 -0.11776778
-0.015151072 -0.095072046 -0.11457036
-0.0091236727 -0.094965503 -0.1141986
0.0092110112 -0.094806477 -0.11588331
0.015301661 -0.095607027 -0.11521018
0.10501427 -0.094533578 -0.11449776
-0.10561595 -0.084674031 -0.11484641
-0.01439925 -0.085752092 -0.11468437
-0.0091646742 -0.084403418 -0.11509585
0.0091741821 -0.084640436 -0.11525723
0.01437584 -0.085510865 -0.11430961
0.10623714 -0.08458291 -0.11506981
-0.10607975 -0.074861683 -0.11561869
-0.014365514 -0.0746518 -0.1141446
-0.0091606034 -0.074793525 -0.11502663
0.0091356551 -0.075164802 -0.11460232
0.014401637 -0.074652255 -0.11472236
0.10612468 -0.074980289 -0.11479666
-0.10609931 -0.065067433 -0.11512773
-0.014392299 -0.063606098 -0.11457314
-0.0091653233 -0.064789541 -0.11510687
0.0091827698 -0.066263258 -0.11540326
0.014407499 -0.06525813 -0.11481617
0.10552731 -0.064830244 -0.11521857
-0.10572969 -0.055140026 -0.11493119
-0.014398525 -0.054902531 -0.11467275
-0.0091338335 -0.054208189 -0.11457153
0.009122706 -0.054802064 -0.1143822
0.014372889 -0.05418925 -0.11426242
0.10588101 -0.054626286 -0.11495329
-0.10590321 -0.045274686 -0.11562778
-0.014422433 -0.044394538 -0.11505529
-0.0091317035 -0.044894949 -0.11453529
0.0091610104 -0.044747282 -0.11503338
0.014477534 -0.044806156 -0.11593676
0.10614078 -0.044894304 -0.1148526
-0.10590938 -0.034706064 -0.11475264
-0.014484166 -0.034519304 -0.11604298
-0.0091371955 -0.034730602 -0.11462867
0.0091325007 -0.035314158 -0.11454875
0.014413864 -0.035132844 -0.11491805
0.10522349 -0.035773497 -0.1153928
-0.1060427 -0.024318922 -0.11509994
-0.014405536 -0.025912588 -0.1147849
-0.0091717904 -0.025219567 -0.11521675
0.0091838203 -0.025018634 -0.11542119
0.01469576 -0.024167225 -0.11568888
0.10603192 -0.025234986 -0.11482123
-0.10570934 -0.015153719 -0.11460152
-0.01438522 -0.01506464 -0.11445984
-0.0092243161 -0.015166552 -0.11610968
0.0093092518 -0.015776394 -0.11570363
0.016585944 -0.015824161 -0.11560976
0.02472247 -0.014571265 -0.11411527
0.035062481 -0.014432015 -0.11520855
0.044472881 -0.014451651 -0.11552276
0.054833271 -0.014421077 -0.11503359
0.065226056 -0.014398429 -0.11467121
0.074849002 -0.01436145 -0.11407959
0.085347638 -0.014390101 -0.11453801
0.094765492 -0.01513997 -0.11577164
0.10589124 -0.016005516 -0.11496915
-0.1056526 -0.0048251026 -0.11497903
-0.014458179 -0.0053926338 -0.11562713
-0.0091221007 -0.006101252 -0.11437201
0.015692974 -0.0092997989 -0.11549774
0.024596706 -0.0091593219 -0.11500482
0.034690194 -0.0091545312 -0.11492339
0.045098525 -0.0091045154 -0.11407305
0.055348042 -0.0091745164 -0.11526313
0.065359153 -0.0091813952 -0.11538007
0.075615957 -0.0091218613 -0.11436804
0.085193902 -0.0091540283 -0.11491486
0.094702147 -0.0091469456 -0.11479447
0.10261549 -0.0092581576 -0.1137972
-0.10545979 0.0048743184 -0.11504833
-0.014438257 0.0053701545 -0.11530839
-0.0091923261 0.0046576695 -0.11556581
0.015862083 0.0093227262 -0.11540041
0.025206663 0.0091502713 -0.11485086
0.035207156 0.0091674849 -0.11514347
0.045876794 0.0091793332 -0.11534487
0.055232234 0.0092005273 -0.11570516
0.064768195 0.0092274072 -0.1161621
0.074968338 0.0091100922 -0.11416773
0.084374346 0.00913959 -0.1146692
0.094893552 0.0091594933 -0.11500748
0.10231128 0.0092667192 -0.11539444
-0.1056219 0.015262861 -0.11469655
-0.014434434 0.014884466 -0.11524718
-0.0091693923 0.014763196 -0.11517591
0.0092897322 0.016410694 -0.11587566
0.015120295 0.014627526 -0.1148916
0.024732539 0.014592974 -0.11462009
0.035214443 0.014491133 -0.11615434
0.044965148 0.014379116 -0.11436208
0.054757588 0.01434238 -0.11377425
0.064498909 0.01441056 -0.11486515
0.074739181 0.01441813 -0.11498622
0.085309573 0.014388632 -0.11451428
0.095201336 0.015115836 -0.11446139
0.10653047 0.015565286 -0.1136694
-0.10561131 0.025198372 -0.11551541
-0.014399923 0.025069138 -0.11469502
-0.0091179749 0.024504753 -0.1143018
0.0092208814 0.024531182 -0.11605132
0.014623459 0.024597291 -0.11483578
0.10541199 0.024933964 -0.11514321
-0.10519666 0.035356659 -0.11466923
-0.014408105 0.035103824 -0.11482589
-0.0091564935 0.034235563 -0.11495661
0.0091621317 0.035328455 -0.11505253
0.014369328 0.035308726 -0.11420555
0.10538569 0.035567407 -0.11513115
-0.10586023 0.044947706 -0.11494448
-0.014448614 0.044424366 -0.11547402
-0.0091583328 0.04440295 -0.11498785
0.0091971913 0.045888614 -0.1156486
0.014405232 0.045261893 -0.11478005
0.10518437 0.04407851 -0.11489058
-0.10512976 0.055126745 -0.1151631
-0.014401197 0.055016637 -0.11471539
-0.0091506541 0.055398639 -0.1148573
0.0090998253 0.054936301 -0.11399336
0.014420619 0.055055518 -0.11502624
0.10601831 0.054658696 -0.11458632
-0.10560173 0.065084331 -0.1148866
-0.014459902 0.066056594 -0.11565462
-0.0091589093 0.065023035 -0.11499763
0.009199053 0.064506359 -0.11568026
0.014386869 0.065070279 -0.11448629
0.10554942 0.064867415 -0.11546721
-0.10578661 0.074853435 -0.11494361
-0.01437957 0.073965982 -0.1143693
-0.0091607952 0.075119726 -0.11502969
0.0091819158 0.075069949 -0.11538897
0.014419895 0.07528951 -0.1150147
0.10640951 0.075358227 -0.11439869
-0.10562333 0.085074693 -0.11454212
-0.014382887 0.085161962 -0.1144223
-0.0091650775 0.085307151 -0.11510246
0.0091255978 0.085652515 -0.11443157
0.014322007 0.085298993 -0.11344851
0.1050297 0.084747717 -0.11483236
-0.10526941 0.095226459 -0.11560037
-0.015349452 0.095987797 -0.11513326
-0.0091748582 0.095030911 -0.11526629
0.0091478918 0.095080294 -0.11481059
0.01488043 0.094563775 -0.11505967
0.1053214 0.094824813 -0.11540314
-0.10455882 0.10501897 -0.11510907
-0.095586844 0.1052344 -0.11562023
-0.084306829 0.10542712 -0.1148698
-0.075235471 0.10581705 -0.11491436
-0.065339118 0.10546598 -0.11480346
-0.054373197 0.10562591 -0.11456767
-0.044678133 0.10572194 -0.1149998
-0.03475979 0.10589314 -0.11502795
-0.024567148 0.10557134 -0.11543773
-0.015883982 0.1054504 -0.1144129
-0.0096758138 0.10112913 -0.11557496
0.0094255684 0.10309039 -0.11506673
0.015611758 0.10627776 -0.11472962
0.025487376 0.10524569 -0.11465913
0.034999553 0.10574188 -0.11580487
0.045335088 0.10504627 -0.11487957
0.054426264 0.10505693 -0.11522969
0.064811513 0.10590102 -0.1152598
0.0755748 0.10557357 -0.11491548
0.084843121 0.10570611 -0.11468147
0.094791248 0.10521998 -0.11452098
0.10589055 0.10577394 -0.11459455
-0.1050358 -0.10510893 -0.10425145
-0.094740711 -0.10711138 -0.10553888
-0.085837476 -0.10638178 -0.10497844
-0.075031094 -0.10634279 -0.10568284
-0.064358324 -0.10620335 -0.10453044
-0.055048417 -0.10558088 -0.10533997
-0.045036588 -0.10644124 -0.10514989
-0.03522056 -0.10640848 -0.10521191
-0.025098301 -0.10594165 -0.10544837
-0.01599359 -0.10583725 -0.10437805
-0.009281355 -0.10222208 -0.10556207
0.0088801729 -0.10294647 -0.10568547
0.01581425 -0.10622228 -0.10457897
0.025371157 -0.10649362 -0.10513073
0.034939338 -0.10616678 -0.10445675
0.04543791 -0.10650163 -0.10520084
0.054692574 -0.10630126 -0.10484442
0.064758994 -0.10618099 -0.1055434
0.074951209 -0.10596533 -0.10483603
0.084630474 -0.10665321 -0.10469607
0.095378324 -0.10658039 -0.10449526
0.10552412 -0.10457834 -0.10484187
-0.10620993 -0.095271483 -0.10480151
-0.014535929 -0.095797852 -0.10517295
-0.0085841632 -0.095547818 -0.10508958
0.0085837925 -0.095084555 -0.1052206
0.014424814 -0.095803574 -0.10519268
0.10664955 -0.094411224 -0.10487802
-0.10667662 -0.085136726 -0.10561828
-0.013794871 -0.084255725 -0.10501438
-0.0086181667 -0.08519613 -0.10580526
0.0086104367 -0.084990889 -0.10567356
0.01378512 -0.084638841 -0.10485807
0.10628316 -0.085157894 -0.10517902
-0.10679691 -0.075079538 -0.10503942
-0.013788943 -0.075120784 -0.10491946
-0.0085371248 -0.074864171 -0.10442752
0.0085664056 -0.074799456 -0.10492508
0.013808816 -0.075180106 -0.10523718
0.10704269 -0.0749828 -0.10474923
-0.10617137 -0.065253139 -0.10447893
-0.013817264 -0.064643532 -0.10537256
-0.0086177858 -0.063877016 -0.10579873
0.0085305357 -0.064130493 -0.10431527
0.01385932 -0.06548284 -0.10604533
0.10707647 -0.065402679 -0.10507923
-0.10675186 -0.055138562 -0.10553911
-0.013848555 -0.055530548 -0.10587323
-0.008577751 -0.055243798 -0.10511813
0.0085768253 -0.055607174 -0.10510222
0.013799746 -0.055588346 -0.10509215
0.1067761 -0.055512726 -0.1047954
-0.10665937 -0.044911761 -0.10425082
-0.013821241 -0.044975281 -0.1054362
-0.0085683623 -0.044980302 -0.1049585
0.0085573373 -0.044474296 -0.10477095
0.013836367 -0.044558354 -0.10567808
0.1062195 -0.045028407 -0.1047727
-0.10630367 -0.034517091 -0.10555202
-0.013766014 -0.034520429 -0.10455255
-0.0085924035 -0.034863267 -0.10536718
0.0085244281 -0.033847563 -0.10421151
0.013772 -0.034529369 -0.10464823
0.1068491 -0.035028916 -0.10469657
-0.10626755 -0.024590202 -0.104685
-0.0138206 -0.025296284 -0.10542592
-0.0085955653 -0.024785277 -0.10542094
0.0085662287 -0.02469396 -0.10492214
0.01388677 -0.024932077 -0.10489415
0.10610469 -0.025014564 -0.10486624
-0.10631125 -0.01510654 -0.10470613
-0.013776481 -0.01532224 -0.10471999
-0.0085992645 -0.014633144 -0.1054838
0.0087689338 -0.015647395 -0.10518644
0.016163303 -0.016429188 -0.10443751
0.026219403 -0.013878734 -0.10547675
0.035115369 -0.013773712 -0.10467574
0.044678997 -0.013796119 -0.10503426
0.054569174 -0.01381154 -0.105281
0.064852253 -0.013832225 -0.10561202
0.074408166 -0.013781661 -0.10480295
0.085126653 -0.013817403 -0.10537484
0.09505672 -0.014387227 -0.10531406
0.10591719 -0.016288888 -0.10542966
-0.10614584 -0.0050789174 -0.10494561
-0.013803029 -0.0056263595 -0.10514475
-0.0085665034 -0.0055882381 -0.10492685
0.015658425 -0.0087622683 -0.10551021
0.024988009 -0.0085816374 -0.10518412
0.033723865 -0.0085242111 -0.1042079
0.045922346 -0.0085853143 -0.10524669
0.054382954 -0.0085649788 -0.10490099
0.064791948 -0.0085831108 -0.10520927
0.076339975 -0.0085724359 -0.10502779
0.084878005 -0.0085845608 -0.10523393
0.094412491 -0.0085402187 -0.10448015
0.10419135 -0.0089998487 -0.10423332
-0.1065319 0.004672884 -0.10518368
-0.013850923 0.0052417186 -0.10591105
-0.0085300617 0.0052171256 -0.1043073
0.015586716 0.0088186851 -0.10505891
0.024087455 0.0085814632 -0.10518113
0.034492087 0.0085497955 -0.10464274
0.045377683 0.0085697239 -0.10498155
0.055331543 0.0085433898 -0.10453384
0.065357998 0.0085391663 -0.104462
0.07495337 0.0085593313 -0.1048048
0.085625231 0.0086081764 -0.10563515
0.093598142 0.008584219 -0.10522787
0.10280152 0.0088545345 -0.10701759
-0.10581751 0.015051152 -0.10491743
-0.013832 0.015827417 -0.10560825
-0.0086034555 0.015051236 -0.10555498
0.0087251347 0.015302239 -0.1042152
0.015754219 0.015554849 -0.1056757
0.024402326 0.013907685 -0.10458683
0.035881642 0.013816122 -0.10535417
0.044608664 0.013780421 -0.10478292
0.055467747 0.013791047 -0.10495296
0.065105781 0.013806282 -0.10519667
0.074291117 0.013800713 -0.10510756
0.086629979 0.013763128 -0.10450618
0.095047347 0.014504165 -0.10583818
0.10575359 0.015776854 -0.10462649
-0.10620917 0.025225833 -0.10506091
-0.013782908 0.024909386 -0.10482277
-0.0085568735 0.025731068 -0.10476307
0.0086049214 0.024813302 -0.10557995
0.013925116 0.024719097 -0.10538682
0.10616493 0.025277603 -0.10488813
-0.10631645 0.035269644 -0.10537274
-0.013746633 0.035409983 -0.10424236
-0.0085755503 0.03473144 -0.10508059
0.0085781273 0.03525592 -0.1051245
0.013789332 0.03532315 -0.10492563
0.10644683 0.034635019 -0.1053159
-0.10641517 0.045078848 -0.10515875
-0.013779324 0.044312965 -0.10476539
-0.008571256 0.043800838 -0.10500757
0.0085750334 0.045050032 -0.10507192
0.013763297 0.044000853 -0.10450911
0.10609015 0.045089453 -0.10516289
-0.10619586 0.054703575 -0.10446794
-0.013770402 0.054235153 -0.10462265
-0.0085730795 0.055004582 -0.10503853
0.0085258605 0.055456355 -0.10423598
0.013761003 0.054323915 -0.10447238
0.10641279 0.055042338 -0.10546377
-0.10659318 0.06532082 -0.10440683
-0.013894235 0.064392738 -0.10660394
-0.0085851112 0.065094195 -0.10524307
0.0085782288 0.065455481 -0.10512629
0.013840417 0.06539724 -0.10574304
0.10635468 0.065295868 -0.10469241
-0.10644812 0.074342065 -0.10530603
-0.013799285 0.074757084 -0.10508472
-0.0086184572 0.076723494 -0.10580991
0.0085526044 0.075220726 -0.10469068
0.013835284 0.075576961 -0.1056609
0.10752387 0.075885847 -0.10500053
-0.10653219 0.084839553 -0.10509858
-0.013791943 0.084907785 -0.10496721
-0.0085342741 0.084364727 -0.10437883
0.0085708005 0.084895752 -0.10500002
0.01389304 0.085263625 -0.10658505
0.10679609 0.084409893 -0.10530517
-0.10595879 0.095464811 -0.10484542
-0.014184775 0.094885632 -0.10435206
-0.0085600987 0.095026471 -0.10475548
0.0085890125 0.09541899 -0.10530964
0.014213216 0.094780073 -0.10479584
0.10598942 0.094824076 -0.10475482
-0.1048294 0.1049393 -0.10466728
-0.095074445 0.10608747 -0.10479251
-0.085343666 0.10660157 -0.10529224
-0.074523039 0.1057699 -0.10525442
-0.064304933 0.10612781 -0.10572226
-0.054564349 0.10620482 -0.10509623
-0.044777401 0.10631331 -0.10526675
-0.034726035 0.10624865 -0.10501778
-0.024525965 0.10620631 -0.10491022
-0.015094134 0.10565566 -0.10466573
-0.0092166411 0.10234097 -0.10441209
0.008755683 0.10300875 -0.10397862
0.01515131 0.10609818 -0.10441604
0.024612321 0.10612155 -0.1053911
0.034784995 0.10588546 -0.10499412
0.045829557 0.10642345 -0.10459726
0.055045731 0.1060461 -0.10527097
0.065261878 0.10572978 -0.10435444
0.074674666 0.10638256 -0.1058492
0.084400907 0.10653176 -0.10486624
0.095132343 0.10667516 -0.10528599
0.10590698 0.10547647 -0.10592881
-0.10471002 -0.10594717 -0.095254242
-0.094635911 -0.10716835 -0.094858065
-0.084720127 -0.10686475 -0.094878532
-0.075416014 -0.1073968 -0.094634332
-0.064920418 -0.10673789 -0.095544517
-0.053823281 -0.10695961 -0.094770491
-0.044587828 -0.10665002 -0.095349878
-0.035154779 -0.10698167 -0.095558248
-0.025083458 -0.10659091 -0.09597446
-0.016045274 -0.10559491 -0.095821455
-0.0087893186 -0.10286924 -0.095369734
0.0084155044 -0.10391514 -0.095077306
0.015243787 -0.10702725 -0.094744571
0.025083372 -0.10739958 -0.094842315
0.035320479 -0.1069847 -0.09501569
0.045402627 -0.10671125 -0.095433109
0.055714715 -0.10726675 -0.094848305
0.064457841 -0.10678854 -0.095437735
0.074808128 -0.10679883 -0.095316261
0.085098423 -0.10718935 -0.094707124
0.095326677 -0.10647856 -0.095197387
0.10536603 -0.10463241 -0.094471
-0.10710528 -0.094475061 -0.095012143
-0.013236968 -0.094237857 -0.093953289
-0.0080057327 -0.095586754 -0.095386699
0.0079969186 -0.095559172 -0.095243745
0.013452117 -0.09478882 -0.095108427
0.10667074 -0.095338091 -0.094953679
-0.10668979 -0.085014649 -0.094731405
-0.013146161 -0.084780417 -0.09463498
-0.0080277016 -0.084530056 -0.095767327
0.0079698125 -0.084637627 -0.094782978
0.01315212 -0.084516943 -0.094730057
0.10682496 -0.085122809 -0.094744779
-0.10688999 -0.074772768 -0.095169388
-0.013187671 -0.07481879 -0.095299102
-0.0079814261 -0.075392842 -0.094980642
0.0079255877 -0.074260987 -0.094031155
0.013245633 -0.075179614 -0.096226282
0.1070764 -0.075363792 -0.095359854
-0.1073925 -0.065497175 -0.094574817
-0.01314875 -0.065036528 -0.094676428
-0.0080129132 -0.064704604 -0.095515907
0.0079442514 -0.064712122 -0.094348431
0.013243245 -0.064592704 -0.096188113
0.1066547 -0.065033741 -0.095632471
-0.10633898 -0.055174198 -0.095061235
-0.013214731 -0.054195259 -0.095732056
-0.0080141062 -0.055962332 -0.095536157
0.0079543274 -0.055779144 -0.094519757
0.01318556 -0.054554798 -0.09526515
0.10753907 -0.054398254 -0.094295986
-0.10670251 -0.044823837 -0.094526656
-0.013222839 -0.044422738 -0.0958618
-0.0079567907 -0.044025727 -0.094561763
0.0079770954 -0.045474786 -0.094906837
0.013142171 -0.04563842 -0.094570912
0.10673228 -0.04516742 -0.095182441
-0.10716525 -0.034183145 -0.095112234
-0.013167649 -0.035350997 -0.09497869
-0.008011126 -0.035010532 -0.095485471
0.0080024255 -0.034550074 -0.095337473
0.013116841 -0.0350051 -0.094165683
0.10673819 -0.035191532 -0.095555447
-0.10631066 -0.024595987 -0.094741911
-0.013164842 -0.024992982 -0.094933756
-0.0079862811 -0.02492596 -0.095063083
0.0080224369 -0.024977323 -0.095677659
0.013237515 -0.024650242 -0.094844863
0.10752376 -0.024921091 -0.094770901
-0.10702573 -0.015022308 -0.094782382
-0.013219954 -0.015834775 -0.095815554
-0.0079798326 -0.01436563 -0.094953448
0.0084107798 -0.014560972 -0.095269017
0.016366763 -0.01646292 -0.095435329
0.025218094 -0.013155025 -0.09393584
0.03459638 -0.013210517 -0.095664598
0.045206208 -0.013233283 -0.09602882
0.056159604 -0.013164456 -0.094927639
0.065018564 -0.013171082 -0.095033661
0.074569024 -0.013100822 -0.093909547
0.085188687 -0.013115089 -0.09413784
0.095074162 -0.013393971 -0.094896831
0.10674775 -0.014781844 -0.095349818
-0.10670943 -0.0054075615 -0.094626807
-0.01314672 -0.005914961 -0.094643794
-0.00799096 -0.004355317 -0.095142603
0.0099738864 -0.0097752688 -0.090837613
0.015994186 -0.0082256338 -0.094264351
0.025015552 -0.007930615 -0.09411674
0.035132278 -0.0080061425 -0.095400743
0.045198608 -0.007984207 -0.095027849
0.056054104 -0.0079944273 -0.095201619
0.065325886 -0.0080246357 -0.09571518
0.075549297 -0.0080277203 -0.095767625
0.084495641 -0.0080208397 -0.095650703
0.09460824 -0.0079712374 -0.094807461
0.10451093 -0.0085545341 -0.09410961
-0.10633414 0.0047189458 -0.095497094
-0.013209742 0.0058125062 -0.095652148
-0.007965602 0.0051764329 -0.094711483
0.015086808 0.0083194235 -0.094628453
0.024378529 0.0080268104 -0.095752023
0.034042433 0.0079728803 -0.094835199
0.044344641 0.0080374246 -0.095932432
0.054295994 0.0079903025 -0.095131308
0.06506744 0.0079883896 -0.095098801
0.07548359 0.00794168 -0.094304733
0.084564798 0.0080390526 -0.095960036
0.09493988 0.0079370691 -0.094226301
0.1040427 0.0084417714 -0.093714513
-0.10713693 0.01507424 -0.094244674
-0.013206107 0.015210953 -0.095594004
-0.0080494024 0.015333628 -0.096136078
0.0081945732 0.015023828 -0.094924286
0.016022731 0.016298363 -0.094725966
0.025757045 0.013211099 -0.094949044
0.035751004 0.013141495 -0.094560176
0.045477126 0.013134705 -0.09445148
0.05533053 0.013157288 -0.094812818
0.064253472 0.013178475 -0.095151782
0.075495504 0.01318647 -0.095279686
0.084400803 0.013161323 -0.09487731
0.095311254 0.013550594 -0.094759844
0.10607648 0.016715337 -0.094739966
-0.10696664 0.025269933 -0.094577201
-0.013175983 0.024821008 -0.095112018
-0.0079723969 0.025404477 -0.094826989
0.0079439888 0.024983667 -0.094344132
0.01324311 0.025214868 -0.095316656
0.10701271 0.02512965 -0.094725929
-0.10651424 0.03480117 -0.095632695
-0.013189761 0.035275817 -0.095332406
-0.0079502836 0.034705184 -0.094451025
0.0079495842 0.035025463 -0.094439238
0.013155669 0.034793824 -0.094786987
0.10620932 0.035067629 -0.095003724
-0.10758908 0.044654105 -0.095169447
-0.013207257 0.044749185 -0.095612355
-0.007969629 0.044639163 -0.094779894
0.0079894029 0.045331877 -0.095116183
0.013156857 0.044814203 -0.094806083
0.10697041 0.043904394 -0.094560131
-0.10692002 0.055093631 -0.094675489
-0.013133539 0.055232402 -0.094432816
-0.0079769706 0.056114353 -0.094904691
0.0079879863 0.054429237 -0.095092125
0.0131613 0.055068355 -0.094877169
0.10671055 0.055158939 -0.095099889
-0.10711093 0.065397881 -0.095289752
-0.013175898 0.064804234 -0.095110528
-0.0080065941 0.065165795 -0.095408298
0.0079905475 0.066157117 -0.095135689
0.013133229 0.065254718 -0.094427995
0.10755466 0.065255977 -0.094734378
-0.10768981 0.074811675 -0.09453132
-0.013222448 0.075152531 -0.095855296
-0.008016617 0.075769283 -0.095578626
0.00800368 0.075624794 -0.095358916
0.013167764 0.073922507 -0.094980627
0.10712242 0.075118162 -0.095217168
-0.10643971 0.085735202 -0.094941482
-0.013169646 0.084651053 -0.095010474
-0.0079608327 0.084122367 -0.094630294
0.0079863742 0.084175773 -0.095064759
0.013159371 0.085021399 -0.094846331
0.10687993 0.085351966 -0.095310867
-0.10735174 0.094980352 -0.095996335
-0.01360914 0.095355205 -0.094088413
-0.0079399664 0.094107389 -0.094274133
0.0080267321 0.094991751 -0.095750831
0.013500163 0.094629399 -0.095348269
0.10609285 0.095905669 -0.095291026
-0.10505925 0.1045446 -0.095016591
-0.094652869 0.10638449 -0.095662802
-0.085560113 0.10682993 -0.094838791
-0.075327359 0.10717954 -0.095123798
-0.065288663 0.10743449 -0.094705947
-0.054443914 0.10701372 -0.095216207
-0.044324037 0.1070365 -0.09539979
-0.034871455 0.10691752 -0.094690494
-0.025376128 0.10704415 -0.095787935
-0.015540916 0.10594633 -0.09564548
-0.0086029787 0.10252013 -0.094859898
0.0083449008 0.10350747 -0.094191566
0.015697744 0.10673423 -0.094985805
0.024948582 0.10665279 -0.094669014
0.034945689 0.10661985 -0.094722964
0.044982936 0.10739385 -0.094559096
0.055284038 0.10663386 -0.094768666
0.064643562 0.10651365 -0.095068835
0.075274676 0.10666043 -0.09447524
0.085263483 0.10700644 -0.095553122
0.095071755 0.10656625 -0.094045296
0.1052483 0.10564645 -0.094671227
-0.10162275 -0.11024484 -0.080680661
-0.095251784 -0.11018356 -0.083250776
-0.085530259 -0.11020115 -0.082951538
-0.074593663 -0.11016858 -0.08350563
-0.065137103 -0.11015941 -0.083661094
-0.055143282 -0.11015224 -0.083783045
-0.044323817 -0.11015202 -0.083786853
-0.035165533 -0.11020247 -0.082929298
-0.02438065 -0.11018764 -0.083181322
-0.018057071 -0.11017737 -0.083177119
0.016952118 -0.11015559 -0.083396226
0.023842033 -0.11016989 -0.083482847
0.0347079 -0.11018259 -0.083267137
0.046286106 -0.11024673 -0.08217679
0.055834092 -0.11019896 -0.082988784
0.06437166 -0.11013918 -0.084005035
0.073880635 -0.11019009 -0.08313939
0.084702492 -0.11017579 -0.083382681
0.094990946 -0.11022557 -0.082536504
0.10114675 -0.11012051 -0.082054161
-0.11010391 -0.10100754 -0.083569899
-0.10461135 -0.10580743 -0.085094206
-0.094455168 -0.10628524 -0.085688926
-0.085237607 -0.10591139 -0.085376114
-0.075072497 -0.10617166 -0.085793011
-0.065182991 -0.10664477 -0.085105091
-0.054334838 -0.10597213 -0.085116215
-0.044283547 -0.10622622 -0.085506484
-0.034557994 -0.10649354 -0.08696463
-0.025190685 -0.10604141 -0.085207045
-0.015015372 -0.10560989 -0.085541911
-0.0083754053 -0.10391321 -0.084419571
0.0078080259 -0.10341515 -0.08472231
0.015586748 -0.1057742 -0.085707366
0.023913635 -0.10644285 -0.085342057
0.034869887 -0.10591564 -0.08618933
0.044331588 -0.10599697 -0.08564242
0.055272307 -0.10610064 -0.085215539
0.064740032 -0.10631163 -0.085434712
0.074955061 -0.10596149 -0.085512027
0.084845059 -0.10679115 -0.085966848
0.095070012 -0.106043 -0.08546672
0.10559496 -0.10523059 -0.085764952
0.11018255 -0.10094576 -0.081262141
-0.11018935 -0.095361434 -0.08315213
-0.10602345 -0.095614851 -0.085675187
-0.012786664 -0.095139533 -0.084377676
-0.0074577294 -0.094885021 -0.086076915
0.0073709833 -0.094536029 -0.08460284
0.012770305 -0.095123097 -0.084959745
0.10532217 -0.095610857 -0.085360967
0.11017701 -0.094714679 -0.083361834
-0.11021793 -0.084358998 -0.082666293
-0.10595362 -0.08438313 -0.08649534
-0.012525104 -0.08471109 -0.084698059
-0.0073398445 -0.084463574 -0.084073745
0.0073962961 -0.084706046 -0.085033163
0.012540623 -0.085333832 -0.084946066
0.10576256 -0.085301235 -0.085463233
0.11018804 -0.084816486 -0.083174638
-0.11017352 -0.074430577 -0.083421513
-0.10636798 -0.074373998 -0.086183339
-0.01257691 -0.074602768 -0.085526906
-0.0073744506 -0.074294925 -0.084662028
0.0073533943 -0.074719392 -0.084303878
0.012511277 -0.074431829 -0.084476605
0.10611601 -0.074916661 -0.085704781
0.11016033 -0.075460687 -0.083645619
-0.11021505 -0.065835185 -0.082714975
-0.1062858 -0.064687282 -0.085844621
-0.012579085 -0.06535323 -0.08556173
-0.00735988 -0.066023394 -0.084414333
0.007375075 -0.064814366 -0.084672451
0.012584836 -0.064584762 -0.085653543
0.10699116 -0.065240353 -0.086435348
0.11018002 -0.065224186 -0.08331091
-0.11018135 -0.054657292 -0.083288364
-0.10604867 -0.054857504 -0.085465975
-0.012567461 -0.054130904 -0.085375696
-0.0074460991 -0.054771494 -0.085880019
0.0073869205 -0.054692596 -0.084873848
0.01256246 -0.055346701 -0.085295543
0.1058272 -0.054383628 -0.086386494
0.1102044 -0.055674922 -0.082896568
-0.11018239 -0.04498912 -0.08327055
-0.10601661 -0.043669194 -0.085973494
-0.012514064 -0.045590647 -0.084521361
-0.0073759235 -0.044987194 -0.084687047
0.007405052 -0.045145947 -0.085182078
0.012527976 -0.045202147 -0.084743835
0.10642487 -0.045268644 -0.08565139
0.11020524 -0.044260859 -0.082882121
-0.11021231 -0.034458641 -0.082761727
-0.10642859 -0.034574427 -0.085323803
-0.012573802 -0.035408728 -0.085477181
-0.0074310559 -0.034617856 -0.085624248
0.0074689314 -0.034698654 -0.086268067
0.01256092 -0.035438366 -0.085270904
0.10657515 -0.034756493 -0.085577182
0.11019348 -0.035316847 -0.083082326
-0.11015816 -0.02506266 -0.08368244
-0.10581386 -0.025129119 -0.086234353
-0.012546844 -0.024352392 -0.0850458
-0.0073794299 -0.024707245 -0.084746599
0.007369861 -0.024691325 -0.084583871
0.012603173 -0.024781818 -0.085198902
0.10627825 -0.02501349 -0.08445891
0.11022165 -0.024987897 -0.082603224
-0.11020018 -0.015005659 -0.08296825
-0.10621874 -0.015543848 -0.085934818
-0.012491219 -0.015575437 -0.084155753
-0.0074336873 -0.014893419 -0.085668981
0.007730511 -0.015172236 -0.085194789
0.015899729 -0.015625067 -0.084140219
0.025360666 -0.012647741 -0.086285286
0.034792274 -0.012542128 -0.084970355
0.044706829 -0.012521137 -0.084634528
0.054430734 -0.012504415 -0.08436697
0.06502822 -0.012559311 -0.085245363
0.075198911 -0.012491969 -0.084167868
0.084868088 -0.012598637 -0.08587461
0.094629526 -0.01276488 -0.08495675
0.10555337 -0.015666224 -0.085124657
0.11012916 -0.017350245 -0.084131986
-0.11020482 -0.0040817852 -0.082889274
-0.10726883 -0.0053914683 -0.08658915
-0.012497574 -0.0059266337 -0.084257476
-0.0073846076 -0.0043406407 -0.084834613
0.0095597915 -0.009679731 -0.08449585
0.015099844 -0.0076152016 -0.08412239
0.025300968 -0.0073981164 -0.085064277
0.034596421 -0.0073819701 -0.08478982
0.044583991 -0.0073884875 -0.084900633
0.055154022 -0.0073880181 -0.084892645
0.064490534 -0.0073851501 -0.084843919
0.075015225 -0.0074188984 -0.085417651
0.08568202 -0.0074191783 -0.085422449
0.095265791 -0.007377232 -0.084709369
0.10454981 -0.0081678573 -0.085890613
-0.11018879 0.0042921891 -0.083162099
-0.10625561 0.0051659183 -0.085531801
-0.012509042 0.0046240627 -0.084440939
-0.0073846132 0.0049503567 -0.08483468
0.0097692516 0.0096953148 -0.087564237
0.014398286 0.0078431992 -0.085032441
0.025726693 0.0073480755 -0.084213518
0.035086259 0.0074112765 -0.085287899
0.045105759 0.0074191205 -0.085421249
0.05531057 0.0074411086 -0.08579503
0.064925976 0.0074282549 -0.085576512
0.074549548 0.007412537 -0.085309267
0.085342169 0.0074305953 -0.085616276
0.095375933 0.00735009 -0.084247649
0.10354678 0.0077758245 -0.08488474
-0.11017426 0.015631687 -0.083408847
-0.10589022 0.015231754 -0.085464023
-0.012535457 0.014765578 -0.084863544
-0.0073823715 0.015080186 -0.084796563
0.0076544937 0.014927411 -0.084967278
0.015731592 0.01566514 -0.084795043
0.02506661 0.012568087 -0.084971935
0.035821237 0.012538993 -0.084920138
0.045164965 0.012497482 -0.084255926
0.055053003 0.012590368 -0.085742079
0.06501136 0.012552082 -0.085129477
0.074919716 0.012585036 -0.085656747
0.08465378 0.012551935 -0.08512713
0.094266839 0.012714122 -0.084977187
0.10643411 0.015672255 -0.086160809
0.11020016 0.016591558 -0.082562409
-0.11018886 0.025309384 -0.083160557
-0.10585362 0.024809919 -0.085246086
-0.012531963 0.026133789 -0.084807664
-0.0074291271 0.024908535 -0.085591413
0.0074011306 0.024704864 -0.085115507
0.012560409 0.025232628 -0.084936149
0.10640331 0.025127674 -0.085790575
0.11018938 0.02560031 -0.08315184
-0.11023158 0.035539828 -0.082434431
-0.10653128 0.035284631 -0.085672133
-0.012518165 0.034561481 -0.084586851
-0.0074160723 0.034694217 -0.085369445
0.0073975888 0.035465412 -0.085055351
0.012585339 0.034170985 -0.085661732
0.10683995 0.035227552 -0.086362191
0.11015113 0.03430067 -0.083802022
-0.11019439 0.045271691 -0.083067052
-0.10601988 0.045069836 -0.08543849
-0.012497665 0.044963825 -0.084258847
-0.0073991227 0.044320293 -0.085081287
0.0073922127 0.044596449 -0.08496394
0.012541614 0.04462155 -0.084962159
0.10590738 0.044605479 -0.086236246
0.11017654 0.043490279 -0.083369888
-0.11014955 0.054526649 -0.083828948
-0.10659347 0.054584432 -0.086490728
-0.012519724 0.055169329 -0.084611788
-0.0073652691 0.055585921 -0.084505767
0.0073748315 0.055118192 -0.084668495
0.012588143 0.055025704 -0.085706621
0.10652108 0.055437908 -0.085832886
0.11016739 0.05510854 -0.083525538
-0.11015976 0.065846585 -0.083655439
-0.10636109 0.06505011 -0.086019412
-0.012494064 0.064138591 -0.084201209
-0.0073856711 0.064563587 -0.084852569
0.0073314114 0.065632127 -0.083930366
0.012553391 0.065027893 -0.085150607
0.10638782 0.06492313 -0.085865147
0.11014096 0.064283349 -0.083974741
-0.11018746 0.073890328 -0.083184421
-0.10645353 0.074184671 -0.086200908
-0.012511779 0.075155541 -0.084484637
-0.0073857335 0.07445696 -0.084853619
0.0074116695 0.074925788 -0.085294768
0.012536564 0.074925832 -0.084881417
0.10542699 0.075564444 -0.084925547
0.11015031 0.075230852 -0.083815902
-0.11017 0.084912196 -0.083481163
-0.1066476 0.084168635 -0.085737124
-0.012576839 0.085143179 -0.085525595
-0.0073925825 0.08475516 -0.084970057
0.007420043 0.084963724 -0.085437141
0.012571272 0.08506798 -0.085436784
0.1062782 0.085384332 -0.086158045
0.11018535 0.085892878 -0.083220303
-0.11019826 0.09693189 -0.083000414
-0.10588975 0.095062897 -0.086346298
-0.012771649 0.09440922 -0.085463986
-0.00736978 0.094537504 -0.084582403
0.0073894635 0.094790705 -0.084917277
0.012852192 0.095594615 -0.084845245
0.10510557 0.094221503 -0.085000418
0.11021235 0.094649367 -0.082761362
-0.11022282 0.10072344 -0.082182616
-0.10584685 0.10493183 -0.084903337
-0.096203253 0.10592888 -0.085280657
-0.085900888 0.10685956 -0.08591301
-0.074814804 0.10631809 -0.085744247
-0.065505929 0.10607474 -0.085757226
-0.055237137 0.10609691 -0.086381234
-0.045441605 0.1064291 -0.085797444
-0.034871452 0.10569607 -0.084561884
-0.02486755 0.10632273 -0.086315386
-0.01484454 0.10545384 -0.08574535
-0.0083707692 0.10362434 -0.084249876
0.0079431739 0.1041444 -0.084748283
0.015393719 0.10617727 -0.084972501
0.024979424 0.10621727 -0.086974964
0.034565333 0.10648984 -0.085860759
0.04539888 0.10607395 -0.086147882
0.054845978 0.10643665 -0.085676402
0.064146437 0.10620242 -0.085713975
0.074588165 0.10614777 -0.086175546
0.085250869 0.10612941 -0.085483342
0.095472187 0.10585716 -0.08508534
0.10616713 0.10569872 -0.084980525
0.11013275 0.101436 -0.084114388
-0.10063516 0.11019597 -0.082703918
-0.095902704 0.11019403 -0.08307261
-0.084628865 0.11021528 -0.082711317
-0.074901506 0.11019847 -0.082997411
-0.064080656 0.11019565 -0.083045185
-0.054917637 0.11022107 -0.082613319
-0.045340281 0.11017507 -0.083394855
-0.03430539 0.11015376 -0.08375705
-0.026229281 0.11022944 -0.08247076
-0.017224137 0.11012589 -0.08384835
0.01740063 0.11024001 -0.081979446
0.024836734 0.11019027 -0.083136953
0.034987774 0.11015901 -0.083668128
0.045647942 0.11013892 -0.084009647
0.055948447 0.11018799 -0.083175831
0.066095397 0.11020638 -0.082862847
0.074202202 0.11021392 -0.08273486
0.084522054 0.11020686 -0.082854778
0.096366845 0.11022107 -0.082613267
0.1023695 0.11023227 -0.081729978
-0.10216179 -0.1105276 -0.073418431
-0.095255472 -0.11062472 -0.075751297
-0.085643895 -0.11069151 -0.074615605
-0.075425178 -0.1106488 -0.075341672
-0.063873492 -0.11066896 -0.074998811
-0.054853141 -0.11068025 -0.074806936
-0.044683326 -0.11076251 -0.073408775
-0.034923531 -0.110577 -0.076562241
-0.025627015 -0.11063763 -0.075531349
-0.01624468 -0.11051773 -0.07550393
0.016474856 -0.11050009 -0.07619644
0.02542698 -0.11067824 -0.074840978
0.034972828 -0.1106501 -0.075319633
0.045375053 -0.11070731 -0.074347258
0.056038853 -0.11068373 -0.074747883
0.066030338 -0.11066772 -0.075019784
0.075041197 -0.11071313 -0.074247994
0.084877186 -0.11068855 -0.074665666
0.094915025 -0.11060275 -0.076114334
0.10184022 -0.1103714 -0.074105904
-0.11050034 -0.10194217 -0.074601054
-0.10561093 -0.10521321 -0.075081103
-0.095873795 -0.10536783 -0.074966267
-0.084848315 -0.1055035 -0.075840376
-0.075054206 -0.10552461 -0.075502418
-0.065430135 -0.10554048 -0.075248823
-0.055126935 -0.10559788 -0.074329935
-0.044863496 -0.10551041 -0.075729936
-0.035033848 -0.10553195 -0.075384937
-0.025265876 -0.10555599 -0.074782997
-0.014802342 -0.10471202 -0.075759232
-0.0076370751 -0.10341927 -0.075489148
0.0076359352 -0.10465997 -0.07543999
0.015179475 -0.10454066 -0.074599519
0.025708435 -0.1055204 -0.075508893
0.035608739 -0.10556558 -0.07484705
0.044297859 -0.10554063 -0.075246178
0.055187225 -0.10555518 -0.075013421
0.06499701 -0.10556258 -0.074894711
0.074541181 -0.10557897 -0.074632734
0.085425258 -0.10548677 -0.076107733
0.094747297 -0.10545263 -0.074805133
0.10482135 -0.10482898 -0.075073145
0.11039767 -0.10144392 -0.074909143
-0.11072443 -0.094960645 -0.074055515
-0.10537688 -0.094810881 -0.07557442
-0.012173108 -0.095624998 -0.075126037
-0.0067972778 -0.095164664 -0.074850135
0.0067397812 -0.094648808 -0.073872417
0.012089924 -0.094843611 -0.074644342
0.10531787 -0.095220841 -0.075575076
0.11066141 -0.095860377 -0.075112097
-0.1106566 -0.084860668 -0.075209096
-0.10556932 -0.085184112 -0.074787028
-0.0119001 -0.084592164 -0.074697994
-0.0067614508 -0.084956497 -0.07424105
0.0067881765 -0.083739132 -0.07469514
0.011917936 -0.085905783 -0.074983105
0.10555766 -0.085068457 -0.074973732
0.1106885 -0.08538983 -0.074667022
-0.1107044 -0.074888252 -0.074396305
-0.10554124 -0.074344337 -0.075236604
-0.011947797 -0.075198434 -0.075461134
-0.006827041 -0.074111536 -0.075356066
0.0068376646 -0.074823916 -0.075536445
0.011896402 -0.074343331 -0.074638583
0.10557023 -0.073800124 -0.074772485
0.11064912 -0.076110385 -0.075336605
-0.11071382 -0.065354787 -0.07423608
-0.10550535 -0.065116145 -0.075810604
-0.011866883 -0.06542065 -0.074166484
-0.0067920508 -0.065635979 -0.074761219
0.0067665931 -0.064678878 -0.074328259
0.0119135 -0.065141663 -0.074912183
0.10558341 -0.065180592 -0.074561477
0.11065508 -0.064748146 -0.075235091
-0.11069002 -0.054510862 -0.074640714
-0.10553483 -0.05460082 -0.075338684
-0.011877167 -0.054905321 -0.074331015
-0.0068082605 -0.055312172 -0.075036794
0.006878254 -0.055795506 -0.076226503
0.011924732 -0.054362595 -0.075091884
0.10558204 -0.054983586 -0.074583814
0.11072129 -0.055135097 -0.074109375
-0.11064068 -0.044643916 -0.075479366
-0.10554297 -0.045343146 -0.07520847
-0.011938739 -0.043966677 -0.075316131
-0.0068147094 -0.045125999 -0.075146385
0.0067896312 -0.044468217 -0.074719906
0.01191765 -0.044765636 -0.07497859
0.10553312 -0.045393299 -0.075366355
0.11065549 -0.044994671 -0.075228088
-0.11065868 -0.034196168 -0.07517346
-0.10564003 -0.034741987 -0.07365571
-0.01190077 -0.035043068 -0.074708678
-0.0068061301 -0.033841368 -0.075000525
0.0068537444 -0.035205044 -0.075809881
0.011859159 -0.034950349 -0.074042775
0.10550768 -0.035128977 -0.075773455
0.11062529 -0.035332508 -0.07574138
-0.11069569 -0.025573296 -0.074544035
-0.10555872 -0.025055112 -0.074956432
-0.011919762 -0.024685379 -0.075012513
-0.0067864382 -0.024701847 -0.074665762
0.0068124696 -0.024877392 -0.075108208
0.01194083 -0.025554309 -0.075094052
0.1054759 -0.025312087 -0.075893737
0.11064461 -0.025014935 -0.075412959
-0.1106784 -0.015754215 -0.074838199
-0.10559206 -0.015980223 -0.074423343
-0.011905704 -0.015592091 -0.074787542
-0.0068192407 -0.0152435 -0.075223394
0.0072287922 -0.014822665 -0.075578906
0.015576857 -0.014917387 -0.075210311
0.0253921 -0.011973955 -0.075568065
0.034578577 -0.011977626 -0.075938329
0.04501342 -0.011921812 -0.075045317
0.054912947 -0.011913285 -0.074908897
0.064631797 -0.011876782 -0.074324876
0.074579395 -0.011882397 -0.074414745
0.085213825 -0.01193797 -0.075303912
0.094898559 -0.012009826 -0.074117482
0.10395421 -0.015155911 -0.074709557
0.11051907 -0.015313796 -0.075413227
-0.11067453 -0.0044497787 -0.074904129
-0.1054921 -0.0050362628 -0.076022834
-0.011952989 -0.0048369309 -0.075544097
-0.0067492141 -0.0049470779 -0.074032918
0.0094591742 -0.0090016788 -0.07458318
0.014722673 -0.0070102871 -0.074277632
0.024873735 -0.0068479888 -0.075712144
0.034281153 -0.0068156649 -0.075162649
0.045138009 -0.0068324506 -0.075447991
0.054995868 -0.0067696734 -0.074380793
0.064779535 -0.0067926333 -0.074771114
0.074934363 -0.006852401 -0.075787187
0.084938362 -0.0068112086 -0.075086944
0.094911687 -0.0067960955 -0.074830025
0.10462072 -0.0076313359 -0.075291149
-0.11063953 0.0045709079 -0.075499065
-0.10557486 0.0056067011 -0.074698225
-0.011946607 0.0049958848 -0.075441994
-0.0067927968 0.0050769276 -0.074773796
0.0090697845 0.0093473503 -0.074392267
0.015523928 0.0070537198 -0.075367361
0.025221316 0.0067779734 -0.07452178
0.03471528 0.0068112449 -0.075087376
0.044441037 0.0068138819 -0.075132228
0.055657532 0.0068334159 -0.075464249
0.063934639 0.0068712411 -0.076107278
0.074669875 0.0068342066 -0.075477667
0.085066266 0.0068038292 -0.074961223
0.094188929 0.0068137953 -0.075130656
0.10441022 0.0074373833 -0.074278846
-0.11064757 0.015526682 -0.075362608
-0.10549639 0.014880132 -0.075953864
-0.011933587 0.014466298 -0.075233646
-0.0068695224 0.015114009 -0.076078132
0.0071600736 0.014932427 -0.074821122
0.01596882 0.014558126 -0.074367449
0.024989652 0.011951037 -0.075123355
0.034640361 0.011883295 -0.074428901
0.044257209 0.011851051 -0.073913001
0.054841693 0.011930975 -0.075191796
0.064868286 0.011941617 -0.075362079
0.07620129 0.01192782 -0.075141281
0.084699698 0.011871678 -0.074243009
0.095105954 0.012113066 -0.075389974
0.10451987 0.015184733 -0.075471506
0.11061507 0.016335148 -0.074770331
-0.11066221 0.025820529 -0.075113863
-0.10550773 0.02469301 -0.075772576
-0.011900745 0.024315313 -0.074708171
-0.0067766854 0.024990968 -0.074499875
0.0067481929 0.024110993 -0.074015573
0.011999357 0.023485914 -0.075553842
0.1055563 0.025236681 -0.074735716
0.11069986 0.025490122 -0.07447353
-0.11065601 0.034777172 -0.075219251
-0.10556112 0.034560636 -0.074918412
-0.0118815 0.035846416 -0.074400254
-0.0067948024 0.035454009 -0.07480786
0.0067799687 0.035881605 -0.074555792
0.011901198 0.035802744 -0.074715458
0.10556443 0.035098977 -0.074865445
0.1106923 0.035584308 -0.074602149
-0.11072857 0.04446118 -0.073985673
-0.10553519 0.045021597 -0.075333178
-0.011914502 0.04487846 -0.074928232
-0.006795581 0.045050755 -0.074821077
0.0067662718 0.045120981 -0.074322984
0.011953932 0.044771604 -0.075559229
0.10554416 0.044782508 -0.075189702
0.11068714 0.045555025 -0.074689999
-0.11059836 0.054708701 -0.076199248
-0.10558532 0.054939449 -0.074531145
-0.012002423 0.054852411 -0.076334976
-0.0068341042 0.054733276 -0.075475954
0.0068057408 0.055468298 -0.074993946
0.0119322 0.054998208 -0.07521154
0.10557265 0.055485476 -0.074733578
0.11066235 0.054172046 -0.075111188
-0.11062002 0.065085337 -0.075831056
-0.1055241 0.064405255 -0.075510569
-0.011973627 0.065517344 -0.075874187
-0.0068005491 0.064744726 -0.0749055
0.0068698479 0.065371752 -0.076083787
0.01195084 0.064902782 -0.075509794
0.10552832 0.065900296 -0.075442865
0.11068958 0.065004468 -0.074648023
-0.11070319 0.074473195 -0.074417301
-0.10561506 0.075205289 -0.074055724
-0.011939897 0.07525263 -0.075334527
-0.0067966683 0.075034671 -0.07483951
0.0067924676 0.075210713 -0.07476832
0.011955472 0.074990995 -0.075583935
0.10563008 0.075823113 -0.073815189
0.11070582 0.07485266 -0.07437215
-0.1106837 0.085163213 -0.074748158
-0.1055543 0.084036991 -0.075027667
-0.01194202 0.085026361 -0.075368457
-0.0067801434 0.084368505 -0.074558586
0.0067762285 0.085016876 -0.074492261
0.011935583 0.085271388 -0.075265706
0.1055989 0.084411688 -0.074313834
0.11070877 0.084651828 -0.07432209
-0.11071921 0.095574982 -0.07414446
-0.1054748 0.094581626 -0.074557841
-0.012112064 0.094703764 -0.075837001
-0.0068571302 0.095021039 -0.075867347
0.0068167988 0.095553964 -0.075181983
0.012163087 0.095529273 -0.074827097
0.10537636 0.095198222 -0.074919485
0.11074064 0.095925592 -0.073780313
-0.11045478 0.10191672 -0.076085247
-0.10527679 0.10538458 -0.075276159
-0.09433993 0.10545216 -0.07476566
-0.084772475 0.10550027 -0.075891919
-0.074934803 0.10553356 -0.075359419
-0.064078383 0.10558501 -0.074536353
-0.05426636 0.1055245 -0.075504132
-0.045396212 0.10549363 -0.075998083
-0.035878982 0.10557795 -0.07464911
-0.025113674 0.10556015 -0.074803904
-0.015058314 0.10475563 -0.075959161
-0.0079678111 0.10457954 -0.075740241
0.0072544296 0.10409653 -0.074356936
0.015726645 0.10429436 -0.075000234
0.025017403 0.10555176 -0.074741647
0.036050249 0.10553625 -0.075316295
0.045532223 0.10555685 -0.074986562
0.055193268 0.10563049 -0.073808476
0.065313362 0.10555636 -0.074994445
0.075193755 0.10560565 -0.07420601
0.083747588 0.10552713 -0.0754622
0.095385611 0.10528326 -0.075228922
0.10519683 0.10531253 -0.075117081
0.11052351 0.10317005 -0.074250795
-0.10215073 0.11053928 -0.073738031
-0.094945803 0.11065935 -0.07516218
-0.08460854 0.11066279 -0.075103737
-0.074919865 0.1106648 -0.075069427
-0.065770194 0.11068492 -0.074727662
-0.055082198 0.11072293 -0.074081197
-0.044991836 0.11069051 -0.074632227
-0.034977216 0.110695 -0.07455647
-0.024447976 0.11063376 -0.075597256
-0.016811103 0.11060543 -0.074526906
0.01578215 0.11054137 -0.074659653
0.024412677 0.11067922 -0.074824356
0.034656569 0.11070102 -0.074454024
0.044316866 0.11060417 -0.076100282
0.054464985 0.11065959 -0.075158067
0.065165482 0.11069825 -0.074500963
0.074397691 0.11068118 -0.074791186
0.085246615 0.11065444 -0.075246118
0.09635327 0.11067661 -0.074868992
0.10323035 0.11043199 -0.075977057
-0.10240783 -0.11120898 -0.063547768
-0.094658338 -0.11125799 -0.064985335
-0.084925801 -0.11127933 -0.064622641
-0.074971959 -0.11126317 -0.064897493
-0.065410405 -0.11129496 -0.06435705
-0.05462696 -0.1113159 -0.064001225
-0.045636114 -0.11125816 -0.06498266
