# .PCD v0.7 - Point Cloud Data file format
VERSION 0.7
FIELDS x y z
SIZE 4 4 4
TYPE F F F
COUNT 1 1 1
WIDTH 359
HEIGHT 1
VIEWPOINT 0 0 0 1 0 0 0
POINTS 359
DATA ascii
0.015772039 -0.022254601 -0.12286803
0.018184632 -0.018079802 -0.12273238
0.02473117 -0.015349017 -0.12257425
0.034892362 -0.014866311 -0.12215734
0.045187626 -0.01486797 -0.12218392
0.055341918 -0.014854112 -0.12196222
0.064950675 -0.014865973 -0.12215195
0.07527481 -0.014866322 -0.12215757
0.085071243 -0.014863359 -0.12211016
0.09532544 -0.015736597 -0.1221496
0.10013371 -0.018273946 -0.12184397
0.018037967 0.017895021 -0.12235758
0.02491677 0.015070626 -0.12232538
0.035126608 0.014853715 -0.12195564
0.044629898 0.014860172 -0.12205902
0.05470553 0.014871641 -0.12224243
0.065320306 0.014873203 -0.12226743
0.075303726 0.014860388 -0.12206232
0.084635012 0.014864771 -0.12213245
0.095073014 0.015627645 -0.12217396
0.10010783 0.018109975 -0.12105902
0.015334846 0.022401154 -0.12222568
0.014771276 -0.022272037 -0.11505596
0.017624553 -0.017337192 -0.11469354
0.024800634 -0.014602121 -0.11525474
0.035009705 -0.014418909 -0.11499888
0.04489639 -0.014423459 -0.11507171
0.054837354 -0.0144251 -0.11509793
0.064946234 -0.014438941 -0.11531936
0.075031504 -0.014398723 -0.11467609
0.084674075 -0.014422628 -0.1150583
0.095009014 -0.01505451 -0.1149646
0.10044122 -0.017678151 -0.1146806
0.017329553 0.017648004 -0.11477321
0.024915421 0.014589142 -0.11511893
0.035210628 0.014428189 -0.1151473
0.044965185 0.014423998 -0.11508011
0.054767657 0.014411196 -0.11487528
0.065210007 0.014417226 -0.11497179
0.074882671 0.014415932 -0.11495106
0.08496321 0.014409793 -0.11485282
0.095169887 0.015101664 -0.11495019
0.10041309 0.017462375 -0.11335554
0.014774265 0.022366611 -0.11534165
0.014056459 -0.02198757 -0.10531165
0.016968962 -0.016841196 -0.10487715
0.024958706 -0.013897917 -0.10492521
0.035098899 -0.013789221 -0.1049239
0.044994924 -0.013808974 -0.10523999
0.054925594 -0.013788108 -0.10490591
0.064844564 -0.013781866 -0.10480627
0.074818738 -0.013791438 -0.10495952
0.085320495 -0.013801058 -0.10511325
0.095276542 -0.014300365 -0.10497866
0.10072077 -0.016718151 -0.10484663
0.017016754 0.016796654 -0.10482623
0.025056697 0.013885939 -0.10481918
0.035350375 0.01377063 -0.10462628
0.045130208 0.013791003 -0.10495234
0.055064056 0.013795855 -0.10502987
0.065115616 0.013799094 -0.10508161
0.074803934 0.013800408 -0.1051027
0.08510115 0.013794606 -0.10500976
0.095532589 0.01441306 -0.10524296
0.10077865 0.016686199 -0.10407114
0.014051049 0.022103297 -0.1052554
0.013385127 -0.021532964 -0.095296599
0.016370295 -0.016415732 -0.095170833
0.025138998 -0.013237535 -0.095064856
0.034964968 -0.013154618 -0.094770148
0.045067195 -0.013187527 -0.09529689
0.05501809 -0.013170568 -0.095025435
0.064831093 -0.013168075 -0.094985574
0.074983798 -0.013153131 -0.094746463
0.085029505 -0.013164453 -0.094927542
0.094691508 -0.013473514 -0.095215887
0.10095581 -0.015803058 -0.09532316
0.016268352 0.0164614 -0.095126808
0.024877697 0.013255657 -0.095231481
0.03528288 0.01316221 -0.094891645
0.045030534 0.013162606 -0.094897926
0.054815337 0.013158116 -0.094826028
0.065227702 0.01315775 -0.094820209
0.075045742 0.013160083 -0.094857596
0.084738657 0.013183708 -0.095235467
0.095273361 0.013525519 -0.094744362
0.10123509 0.015990881 -0.094580881
0.013310016 0.021954937 -0.09478046
0.012695272 -0.021274127 -0.085360162
0.015734853 -0.015874119 -0.085097179
0.024959441 -0.01256932 -0.084864259
0.035184722 -0.012538373 -0.084910266
0.04523224 -0.012535308 -0.084861308
0.054936092 -0.012544025 -0.085000746
0.064929999 -0.012540495 -0.084944382
0.075119913 -0.012535295 -0.084861264
0.084841348 -0.012549388 -0.085086651
0.09489651 -0.01279606 -0.084880397
0.10143617 -0.015038863 -0.084933825
0.015913736 0.015719404 -0.084885374
0.025113655 0.012558065 -0.084817462
0.034874517 0.012547578 -0.085057482
0.044961818 0.012540087 -0.084937684
0.055083152 0.012563216 -0.085307665
0.064810783 0.012536411 -0.084878847
0.075170875 0.012559268 -0.085244402
0.0851411 0.012571358 -0.085437842
0.094929717 0.012767483 -0.085048787
0.10142343 0.015042245 -0.08476752
0.01263385 0.021723792 -0.084891163
0.011983931 -0.020908182 -0.074767396
0.015307441 -0.015267914 -0.075142853
0.024833515 -0.011950738 -0.075236611
0.035313614 -0.011913348 -0.074909858
0.045265038 -0.011924107 -0.075081997
0.054861162 -0.011907296 -0.074813105
0.065061219 -0.011920166 -0.075018957
0.074903339 -0.011930726 -0.075188033
0.085194699 -0.011931858 -0.07520625
0.094985485 -0.012071086 -0.075009272
0.10187707 -0.014317144 -0.075164236
0.015273453 0.015250918 -0.075093329
0.025010118 0.011939206 -0.075119302
0.034706663 0.011926304 -0.075117104
0.045062739 0.011925536 -0.07510481
0.054726683 0.011905966 -0.07479161
0.065275192 0.011922126 -0.07505013
0.075109944 0.011924548 -0.075088896
0.084760614 0.011898207 -0.074667506
0.094796307 0.012070776 -0.075056009
0.10207156 0.014485653 -0.074965857
0.012000426 0.021410115 -0.075335406
0.011396299 -0.020690363 -0.065959051
0.014821152 -0.014618729 -0.064977296
0.025037294 -0.011280036 -0.064708121
0.035255942 -0.011294604 -0.065010004
0.044892307 -0.011288222 -0.064907975
0.054993644 -0.011287252 -0.064892344
0.064995289 -0.011278368 -0.064750254
0.075074151 -0.011313721 -0.06531588
0.085019484 -0.01128191 -0.064806983
0.095011838 -0.011420161 -0.065039672
0.10209402 -0.013369699 -0.064901151
0.014737607 0.014689818 -0.064808019
0.025127739 0.011307021 -0.065136753
0.03519538 0.011298493 -0.065072156
0.044984072 0.011281706 -0.064803474
0.055220123 0.011291856 -0.064965889
0.06498158 0.01130983 -0.065253422
0.074796416 0.011305264 -0.065180369
0.085117422 0.011276701 -0.06472341
0.095126204 0.011397159 -0.064907432
0.10233406 0.013533099 -0.064295724
0.011337359 0.021428812 -0.065398805
-0.0039387634 -0.11639358 -0.052113935
0.0040370175 -0.11630365 -0.051921867
0.010725657 -0.02033947 -0.055549312
0.014149744 -0.014252326 -0.055004578
0.025098585 -0.010685238 -0.055244599
0.034906715 -0.010680686 -0.055187292
0.045115512 -0.010665253 -0.054940332
0.05501426 -0.010677104 -0.055129927
0.06509494 -0.010688453 -0.055311598
0.075055987 -0.010664305 -0.054925255
0.084874295 -0.010673543 -0.055073068
0.095079787 -0.010730629 -0.05494355
0.1024626 -0.012580842 -0.054784033
0.013986195 0.01445351 -0.05488826
0.02481653 0.010670879 -0.054991513
0.035107177 0.010688025 -0.055304576
0.045150191 0.010676876 -0.055126268
0.054986447 0.010687954 -0.055303458
0.064721972 0.010666691 -0.054963119
0.074922219 0.010667524 -0.054976571
0.085133374 0.01066835 -0.054989759
0.094870843 0.01072069 -0.054990981
0.10266289 0.012814242 -0.055109143
0.010714892 0.021215625 -0.055682693
-0.0038304171 0.11634812 -0.052025251
0.0045751855 0.11624865 -0.052009702
-0.0045086602 -0.11274926 -0.045634184
0.0046207798 -0.11265093 -0.045530971
-0.0070215669 -0.10573325 -0.042131912
0.0067971726 -0.10619812 -0.041924071
-0.0074999835 -0.094543286 -0.042200901
0.0075000026 -0.095209062 -0.042191088
-0.0074999905 -0.085029051 -0.042142075
0.0074999994 -0.085059933 -0.042362079
-0.0074999933 -0.075172223 -0.042107023
0.007499997 -0.075227261 -0.042300623
-0.0075000008 -0.065018877 -0.041970085
0.007499997 -0.065206312 -0.041968927
-0.0045689186 -0.058834344 -0.042186275
0.00398299 -0.05878244 -0.042120825
0.013120009 -0.012776307 -0.049395952
0.024720507 -0.01030882 -0.049599443
0.035068441 -0.010287759 -0.04960601
0.045995362 -0.010268645 -0.049531668
0.055510137 -0.010277536 -0.049575035
0.064229161 -0.010272271 -0.049549352
0.074759595 -0.010263486 -0.049509771
0.085520305 -0.010293232 -0.049586602
0.095268361 -0.01029558 -0.049458377
0.10362241 -0.011666673 -0.049370088
0.015613248 -0.0052431771 -0.049296364
0.0252079 -0.0050697941 -0.049296346
0.035052493 -0.0052353074 -0.04929636
0.045241594 -0.0049690814 -0.049296364
0.055167843 -0.0050071059 -0.049296327
0.06479954 -0.0050614197 -0.049296301
0.075210817 -0.0053457338 -0.049296364
0.084923387 -0.0049758982 -0.049296364
0.095031463 -0.0049787667 -0.049296364
0.10332919 -0.0048517408 -0.049296357
0.015059135 0.00467784 -0.049296364
0.024837116 0.004854559 -0.049296357
0.035146374 0.0049058395 -0.049296364
0.045307156 0.0051351273 -0.049296364
0.054967452 0.0050306558 -0.049296364
0.064644381 0.0049832431 -0.049296319
0.074805468 0.0047436506 -0.04929636
0.084899075 0.0053112889 -0.049296357
0.095123306 0.0049319942 -0.04929636
0.1034786 0.0051309909 -0.049296357
0.013266991 0.012689564 -0.049398191
0.025580456 0.010292537 -0.049519312
0.034898505 0.010295892 -0.049566623
0.045310292 0.010297817 -0.049547415
0.055051759 0.010275912 -0.049570914
0.064373739 0.010290371 -0.049596749
0.074820131 0.010266712 -0.049537517
0.084133074 0.010259717 -0.049454506
0.094604291 0.010303029 -0.049512431
0.1040793 0.011985698 -0.049366269
0.010238484 0.021120559 -0.049458768
-0.0047408408 0.058866363 -0.042065293
0.0041473829 0.058818873 -0.042176399
-0.0074999966 0.064913236 -0.04210858
0.0075319801 0.065001935 -0.042472109
-0.0075000022 0.074811742 -0.042142421
0.0076360251 0.07515756 -0.042664539
-0.0075000017 0.085207999 -0.042245936
0.007795895 0.0850401 -0.042914338
-0.0075000017 0.095023714 -0.042020358
0.0079470724 0.094669193 -0.04291483
0.010063425 0.099433437 -0.044296272
-0.0069821351 0.10609177 -0.042055804
0.0071688211 0.10556471 -0.042459149
0.01025919 0.10149281 -0.044296272
-0.0046446174 0.11277582 -0.045751739
0.0045871949 0.11279283 -0.045616534
-0.0048790732 -0.10407752 -0.035726693
0.0049512433 -0.10417303 -0.035951
-0.0069714845 -0.09554743 -0.034615841
0.0068730433 -0.095605217 -0.034368563
-0.0074999584 -0.084895492 -0.034964267
0.0075000077 -0.085367672 -0.034691676
-0.007499998 -0.074992627 -0.035301272
0.0074999998 -0.075205617 -0.035053417
-0.0075000124 -0.065137058 -0.035212036
0.007500005 -0.064973392 -0.035368145
-0.004132262 -0.058823772 -0.034859054
0.0043738731 -0.058823951 -0.034860305
-0.0040308633 0.058796078 -0.034891989
0.0044965958 0.058851883 -0.034828153
-0.007500011 0.06493672 -0.035144851
0.0075000068 0.065146208 -0.034859631
-0.0075000036 0.074898995 -0.035009719
0.0074999891 0.074978955 -0.034932114
-0.0075000082 0.085039042 -0.035038732
0.0074999593 0.084881462 -0.035130031
-0.006947096 0.095528133 -0.034399733
0.0069218175 0.095235631 -0.034344532
-0.0046243025 0.10441851 -0.03589265
0.004859719 0.10441424 -0.035950407
-0.004380452 -0.093718477 -0.027577821
0.0046349824 -0.093690097 -0.027686272
-0.0055834949 -0.084917672 -0.024172675
0.0055313124 -0.084933914 -0.024155691
-0.0074999919 -0.075002946 -0.024893528
0.0075000147 -0.074690692 -0.025056437
-0.0075000073 -0.064872667 -0.024909833
0.0075000124 -0.06499663 -0.025047068
-0.0048084487 -0.056051135 -0.024005467
0.0048311627 -0.056248654 -0.02413395
-0.0042329053 -0.048040096 -0.020591184
0.0042016343 -0.048103876 -0.020615879
-0.0040058289 0.048092727 -0.020601567
0.0044477503 0.048285455 -0.02063884
-0.0046116197 0.056248143 -0.024168298
0.0048458241 0.056093566 -0.023958227
-0.0075000036 0.064867437 -0.024891814
0.0075000073 0.064996116 -0.025105324
-0.0075000059 0.075141311 -0.025100209
0.0074999966 0.074855328 -0.025195934
-0.0055343132 0.084915325 -0.024421342
0.005780017 0.084840171 -0.024310695
-0.0047391355 0.094108872 -0.027848681
0.0046018655 0.093614884 -0.02762348
-0.0042060749 -0.080308065 -0.019871367
0.0040778043 -0.080416523 -0.019920744
-0.0046659042 -0.074560463 -0.017653191
0.0044954768 -0.074645102 -0.017663864
-0.0056414357 -0.064581908 -0.01469833
0.005461955 -0.064969175 -0.01478097
-0.0066996017 -0.055418115 -0.01395813
0.0067407517 -0.055757318 -0.014090252
-0.006153462 -0.044513911 -0.016110236
0.0063660564 -0.044527952 -0.016099961
-0.0055359146 -0.035099469 -0.01541061
0.0054342258 -0.034941621 -0.01545005
-0.0053359079 -0.024920244 -0.013902268
0.0051138233 -0.025108511 -0.013995881
-0.005256481 -0.015151067 -0.013077023
0.004880995 -0.015179743 -0.01311137
-0.0045821397 -0.0047460771 -0.012596771
0.0047092796 -0.0049938555 -0.01267614
-0.0047241347 0.0049143219 -0.012540572
0.0050128861 0.0050839633 -0.012566903
-0.005060331 0.015286842 -0.013033128
0.0051471395 0.015361801 -0.013128513
-0.0051976866 0.025158953 -0.014024153
0.005248467 0.025165265 -0.013929385
-0.0055039492 0.035575852 -0.015242619
0.0054310686 0.035016567 -0.015343642
-0.0061907005 0.044628061 -0.016312657
0.0060610422 0.044483595 -0.016444603
-0.0063618878 0.055652864 -0.013909969
0.0066216956 0.055761199 -0.014213027
-0.0056593637 0.064727634 -0.014739201
0.0054045874 0.064751416 -0.014774019
-0.0044781519 0.074889041 -0.017761605
0.0045144069 0.074723013 -0.017659295
-0.0030005523 0.080262601 -0.019850671
0.0037095584 0.080299191 -0.019867333
-0.0040954971 -0.052826434 -0.0090328734
0.0044796597 -0.05283701 -0.0089952899
-0.0050163036 -0.044776168 -0.0072714495
0.0047355061 -0.044845134 -0.0071196249
-0.0052486397 -0.034831174 -0.005544493
0.0053974423 -0.034929749 -0.0057075294
-0.0055781323 -0.024690332 -0.0046090479
0.0056044832 -0.024635002 -0.0044810465
-0.0056585316 -0.015248742 -0.0039827358
0.0055366801 -0.014838744 -0.0038097352
-0.0060009407 -0.0048073567 -0.0037122259
0.0056955023 -0.0049453313 -0.0036453477
-0.0057272022 0.0050273365 -0.003578013
0.0057667997 0.0049455012 -0.0036111271
-0.0057729827 0.014822926 -0.0037214104
0.0055762287 0.015005744 -0.003739988
-0.0055897534 0.024849458 -0.00457389
0.0057063112 0.024935422 -0.0046321913
-0.005428405 0.035205111 -0.005744807
0.0054832501 0.035046503 -0.0056798067
-0.0048768213 0.044810466 -0.0073069059
0.0049550408 0.04484313 -0.0073339911
-0.0043414454 0.052993651 -0.0090993745
0.0039332006 0.052835453 -0.009006354
