# .PCD v0.7 - Point Cloud Data file format
VERSION 0.7
FIELDS x y z
SIZE 4 4 4
TYPE F F F
COUNT 1 1 1
WIDTH 1282
HEIGHT 1
VIEWPOINT 0 0 0 1 0 0 0
POINTS 1282
DATA ascii
0.40440631 0.3137584 0.00051945448
0.41603276 0.31460899 0.00051945448
0.42400828 0.31381682 0.00051945448
0.43031868 0.31461754 0.00051945448
0.0050352653 -0.00049999356 0.015394631
0.016586995 -0.00049999356 0.014797402
0.024914492 -0.00049999356 0.014095108
0.034900926 -0.00049999356 0.015121944
0.045936253 -0.00049999356 0.014554379
0.055741131 -0.00049999356 0.014724901
0.064558655 -0.00049999356 0.01586901
0.074339993 -0.00049999356 0.015468616
0.084639788 -0.00049999356 0.014853468
0.094957136 -0.00049999356 0.014423284
0.10584082 -0.00049999356 0.01398115
0.11365481 -0.00049999356 0.01503302
0.12574555 -0.00049999356 0.016508635
0.1356734 -0.00049999356 0.014510828
0.14453319 -0.00049999356 0.014593885
0.15480374 -0.00049999356 0.015038881
0.16605102 -0.00049999356 0.014689334
0.17435756 -0.00049999356 0.01491791
0.1839969 -0.00049999356 0.016679257
0.19352099 -0.00049999356 0.017890634
0.20555946 -0.00049999356 0.015237982
0.21470466 -0.00049999356 0.014867814
0.22471932 -0.00049999356 0.014360546
0.23431864 -0.00049999356 0.01532095
0.24488705 -0.00049999356 0.014656629
0.25617895 -0.00049999356 0.014329319
0.26621535 -0.00049999356 0.013700478
0.27260605 -0.00049999356 0.015584972
0.28571784 -0.00049999356 0.013167428
0.29386961 -0.00049999356 0.013732732
0.30423406 -0.00049999356 0.015382264
0.31413814 -0.00049999356 0.015419829
0.3240689 -0.00049999356 0.016102549
0.33630505 -0.00049999356 0.015314639
0.34433132 -0.00049999356 0.015755404
0.35372186 -0.00049999356 0.015037945
0.36454773 -0.00049999356 0.015505696
0.37568122 -0.00049999356 0.014976866
0.38507849 -0.00049999356 0.014530372
0.39560047 -0.00049999356 0.014624069
0.40444875 -0.00049999356 0.015675137
0.41403109 -0.00049999356 0.016358312
-0.00078644342 0.0038239737 0.014558785
0.003625863 0.0023716923 0.01469562
0.015853923 0.0010000169 0.014259238
0.024282521 0.0010000169 0.014413577
0.034967188 0.0010000169 0.014768585
0.043293327 0.0010000169 0.014973245
0.054650731 0.0010000169 0.014817471
0.065363139 0.0010000169 0.015390328
0.074602112 0.0010000169 0.014753997
0.085295625 0.0010000169 0.014957317
0.094885059 0.0010000169 0.014704772
0.10465933 0.0010000169 0.015963381
0.11497752 0.0010000169 0.014553416
0.1247929 0.0010000169 0.014306939
0.13425188 0.0010000169 0.014452012
0.14583804 0.0010000169 0.014506184
0.15478307 0.0010000169 0.01513938
0.16464613 0.0010000169 0.015066369
0.17590213 0.0010000169 0.016832747
0.18348511 0.0010000169 0.013273873
0.19690919 0.0010000169 0.014613449
0.20459507 0.0010000169 0.014301235
0.21548408 0.0010000169 0.013448763
0.2243026 0.0010000169 0.014274048
0.23469703 0.0010000169 0.01632089
0.24423565 0.0010000169 0.015765121
0.25441474 0.0010000169 0.015725682
0.26504084 0.0010000169 0.014451254
0.27648485 0.0010000169 0.014589704
0.28467748 0.0010000169 0.013989537
0.2953119 0.0010000169 0.015553202
0.30536839 0.0010000169 0.014444639
0.31568024 0.0010000169 0.013604452
0.32464784 0.0010000169 0.015012085
0.33436692 0.0010000169 0.015362158
0.34508154 0.0010000169 0.015255847
0.35563797 0.0010000169 0.01392814
0.3649857 0.0010000169 0.014038415
0.37498957 0.0010000169 0.014827351
0.38646963 0.0010000169 0.014607826
0.39513874 0.0010000169 0.01521116
0.40444234 0.0010000169 0.014446927
0.41583812 0.0010000169 0.013177732
-0.00099998713 0.014383289 0.014638409
0.00049999356 0.014319288 0.01464464
-0.00099998713 0.024289932 0.015200772
0.00049999356 0.025144348 0.016113892
-0.00099998713 0.035515357 0.013878132
0.00049999356 0.037269965 0.015483648
-0.00099998713 0.04500242 0.015250016
0.00049999356 0.045780327 0.015544781
-0.00099998713 0.054725211 0.014588602
0.00049999356 0.054692708 0.01452821
-0.00099998713 0.064379491 0.015486721
0.00049999356 0.065408304 0.014964449
-0.00099998713 0.074513637 0.014926872
0.00049999356 0.074254267 0.015820248
-0.00099998713 0.084655836 0.014613525
0.00049999356 0.084760651 0.015903758
-0.00099998713 0.09399832 0.014212066
0.00049999356 0.094604805 0.015637703
-0.00099998713 0.10496797 0.015505329
0.00049999356 0.10476699 0.015164803
-0.00099998713 0.11417884 0.015004996
0.00049999356 0.11563674 0.013850396
-0.00099998713 0.12508604 0.014457168
0.00049999356 0.12438774 0.017158998
-0.00099998713 0.1345097 0.015435453
0.00049999356 0.13369684 0.014235348
-0.00099998713 0.14495412 0.016007474
0.00049999356 0.14532359 0.015674738
-0.00099998713 0.15320475 0.016887788
0.00049999356 0.15533185 0.014228822
-0.00099998713 0.16476405 0.015857695
0.00049999356 0.16512498 0.016267236
-0.00099998713 0.17454879 0.014683236
0.00049999356 0.17472023 0.015326582
-0.00099998713 0.18540995 0.015824519
0.00049999356 0.1866895 0.012629138
-0.00099998713 0.19460337 0.015205263
0.00049999356 0.1961147 0.013681552
-0.00099998713 0.20470889 0.014282105
0.00049999356 0.20547244 0.015370041
-0.00099998713 0.21425642 0.014319927
0.00049999356 0.21349798 0.014723673
-0.00099998713 0.22522384 0.014456521
0.00049999356 0.22416674 0.015157927
-0.00099998713 0.23424847 0.015155436
0.00049999356 0.23356815 0.014625452
-0.00099998713 0.24605027 0.016552987
0.00049999356 0.24486043 0.015083821
-0.00099998713 0.25402942 0.01450112
0.00049999356 0.25585824 0.014114973
-0.00099998713 0.26643595 0.016121909
0.00049999356 0.26388583 0.015036117
-0.00099998713 0.27502504 0.01705797
0.00049999356 0.27371228 0.016348928
-0.00099998713 0.28447324 0.013914131
0.00049999356 0.28601328 0.016147034
-0.00099998713 0.29432705 0.015139306
0.00049999356 0.29321241 0.014934808
-0.00099998713 0.30365026 0.015442464
0.00049999356 0.30609897 0.015834104
-0.00096740248 0.31547442 0.015063944
0.00046908611 0.31584433 0.015840663
0.0055920118 -0.00046268792 0.025081541
0.014389375 -0.00049999356 0.024330894
0.024313556 -0.00049999356 0.026590567
0.035853092 -0.00049999356 0.024179727
0.044708077 -0.00049999356 0.022870876
0.054627292 -0.00049999356 0.025063436
0.063903362 -0.00049999356 0.02554943
0.076551355 -0.00049999356 0.024844564
0.085779183 -0.00049999356 0.024372526
0.095317394 -0.00049999356 0.025518702
0.10488573 -0.00049999356 0.025156135
0.11539017 -0.00049999356 0.025698053
0.12313952 -0.00049999356 0.025810951
0.13345304 -0.00049999356 0.025877841
0.14560266 -0.00049999356 0.025309404
0.15431139 -0.00049999356 0.02390616
0.1651931 -0.00049999356 0.026179763
0.17644471 -0.00049999356 0.024329536
0.18386053 -0.00049999356 0.025749257
0.19487847 -0.00049999356 0.024741666
0.20467703 -0.00049999356 0.024136899
0.21441449 -0.00049999356 0.025829541
0.22403882 -0.00049999356 0.025865173
0.23385228 -0.00049999356 0.024963234
0.24552286 -0.00049999356 0.025680974
0.25480238 -0.00049999356 0.024236593
0.26438123 -0.00049999356 0.0238382
0.27429235 -0.00049999356 0.025158428
0.28546682 -0.00049999356 0.024733827
0.29426768 -0.00049999356 0.026551133
0.30561996 -0.00049999356 0.024247833
0.31517377 -0.00049999356 0.023295408
0.32669255 -0.00049999356 0.025327364
0.33414003 -0.00049999356 0.025439916
0.34351239 -0.00049999356 0.023366235
0.35573745 -0.00049999356 0.023328582
0.36465478 -0.00049999356 0.025345715
0.37501454 -0.00049999356 0.024372241
0.38601416 -0.00049999356 0.024337271
0.39584151 -0.00049999356 0.026219219
0.40599889 -0.00049999356 0.02365038
0.41634476 -0.00049999356 0.024027215
-0.00094213634 0.005217094 0.023589415
0.0021705111 0.0035378484 0.024241053
0.013971785 0.0010000169 0.023890462
0.024938764 0.0010000169 0.024531838
0.035224043 0.0010000169 0.024505727
0.046298053 0.0010000169 0.024540348
0.054095693 0.0010000169 0.025774527
0.064573161 0.0010000169 0.024491724
0.074730508 0.0010000169 0.025060957
0.084879719 0.0010000169 0.026200285
0.09581428 0.0010000169 0.026045138
0.10196817 0.0010000169 0.02625172
0.11379656 0.0010000169 0.024529882
0.12507816 0.0010000169 0.025737263
0.13369149 0.0010000169 0.024536278
0.14432582 0.0010000169 0.024624135
0.15539522 0.0010000169 0.025096947
0.16309789 0.0010000169 0.022525175
0.17598514 0.0010000169 0.026900738
0.18521616 0.0010000169 0.024660647
0.19547738 0.0010000169 0.025187343
0.20357707 0.0010000169 0.023246378
0.21508315 0.0010000169 0.025598846
0.22546326 0.0010000169 0.024775233
0.23584898 0.0010000169 0.025246833
0.24519867 0.0010000169 0.025060477
0.25449204 0.0010000169 0.025283935
0.26553586 0.0010000169 0.026364237
0.27424517 0.0010000169 0.02389683
0.28530553 0.0010000169 0.023943551
0.29559267 0.0010000169 0.025339872
0.30418968 0.0010000169 0.025056355
0.3155278 0.0010000169 0.025284115
0.32585824 0.0010000169 0.026087832
0.33447874 0.0010000169 0.02498387
0.34591725 0.0010000169 0.024310013
0.35447997 0.0010000169 0.025075959
0.36493012 0.0010000169 0.024973124
0.37490046 0.0010000169 0.024645336
0.38433376 0.0010000169 0.024572065
0.39692315 0.0010000169 0.024896206
0.40517214 0.0010000169 0.025014771
0.41408312 0.0010000169 0.02419107
-0.00099998713 0.015382043 0.024461767
0.00049999356 0.015908552 0.025437566
-0.00099998713 0.024884099 0.025172632
0.00049999356 0.02528825 0.023964562
-0.00099998713 0.034350708 0.024938593
0.00049999356 0.035091538 0.024022199
-0.00099998713 0.044271447 0.024598375
0.00049999356 0.044036675 0.024171909
-0.00099998713 0.054643668 0.025564507
0.00049999356 0.053203933 0.025842184
-0.00099998713 0.065712534 0.02329044
0.00049999356 0.064682081 0.025550554
-0.00099998713 0.072761454 0.023425551
0.00049999356 0.073440537 0.02623667
-0.00099998713 0.083966382 0.025073241
0.00049999356 0.085475869 0.025466587
-0.00099998713 0.095736451 0.02533599
0.00049999356 0.094525322 0.025109669
-0.00099998713 0.10586919 0.026328534
0.00049999356 0.10355785 0.025944334
-0.00099998713 0.11431375 0.024086379
0.00049999356 0.11453675 0.025263079
-0.00099998713 0.1256485 0.024449468
0.00049999356 0.12516126 0.024670735
-0.00099998713 0.13403866 0.024910972
0.00049999356 0.13427202 0.02501777
-0.00099998713 0.14488238 0.02519423
0.00049999356 0.14541912 0.024684155
-0.00099998713 0.15607446 0.024319367
0.00049999356 0.15534268 0.024722092
-0.00099998713 0.16275252 0.025218358
0.00049999356 0.16457491 0.025085861
-0.00099998713 0.17406963 0.023640344
0.00049999356 0.17465071 0.02283773
-0.00099998713 0.18508299 0.025861453
0.00049999356 0.18578859 0.024771413
-0.00099998713 0.19522332 0.024723532
0.00049999356 0.19548376 0.024633445
-0.00099998713 0.20549762 0.025844103
0.00049999356 0.20429991 0.02632761
-0.00099998713 0.21418037 0.022757325
0.00049999356 0.21537568 0.025108481
-0.00099998713 0.22380406 0.023552209
0.00049999356 0.22502543 0.025484495
-0.00099998713 0.23451486 0.025034742
0.00049999356 0.23587215 0.025901895
-0.00099998713 0.24725087 0.02653932
0.00049999356 0.24480884 0.024410924
-0.00099998713 0.25538275 0.025783772
0.00049999356 0.25564963 0.026167775
-0.00099998713 0.26407516 0.024652176
0.00049999356 0.26633292 0.024948899
-0.00099998713 0.2747393 0.026111249
0.00049999356 0.27528793 0.023677809
-0.00099998713 0.28471884 0.026123451
0.00049999356 0.28749007 0.025143782
-0.00099998713 0.29348525 0.024500839
0.00049999356 0.29379049 0.025532793
-0.00099998713 0.30501804 0.025634408
0.00049999356 0.30588111 0.024310403
-0.00098930916 0.31520268 0.025181022
0.00049999356 0.31402916 0.024888972
0.0058521656 -0.00043691494 0.034600962
0.014990407 -0.00049999356 0.036794223
0.025157997 -0.00049999356 0.034308989
0.034596059 -0.00049999356 0.035227373
0.044755977 -0.00049999356 0.035431895
0.054683805 -0.00049999356 0.035337139
0.064833254 -0.00049999356 0.03512628
0.075246185 -0.00049999356 0.035360333
0.083864495 -0.00049999356 0.035887726
0.095177546 -0.00049999356 0.034445688
0.10504368 -0.00049999356 0.035417482
0.11411668 -0.00049999356 0.037405614
0.12519471 -0.00049999356 0.034825813
0.13492817 -0.00049999356 0.035424393
0.14340553 -0.00049999356 0.035720106
0.15402628 -0.00049999356 0.034235813
0.16403474 -0.00049999356 0.03502522
0.17429543 -0.00049999356 0.036424551
0.18609637 -0.00049999356 0.036336992
0.19454497 -0.00049999356 0.034424383
0.20473753 -0.00049999356 0.036058489
0.2145454 -0.00049999356 0.034661908
0.22424234 -0.00049999356 0.035406124
0.23449439 -0.00049999356 0.037083257
0.2441985 -0.00049999356 0.034861673
0.25659218 -0.00049999356 0.034313619
0.26339984 -0.00049999356 0.035201039
0.27460858 -0.00049999356 0.034278672
0.28554058 -0.00049999356 0.035273042
0.2942802 -0.00049999356 0.034611765
0.30471784 -0.00049999356 0.034776956
0.31542107 -0.00049999356 0.034570955
0.32564515 -0.00049999356 0.0362911
0.33328977 -0.00049999356 0.03408698
0.34527883 -0.00049999356 0.0363965
0.35498786 -0.00049999356 0.035131034
0.36516401 -0.00049999356 0.034338549
0.37611645 -0.00049999356 0.035258472
0.38439521 -0.00049999356 0.035186257
0.39556229 -0.00049999356 0.03514326
0.404502 -0.00049999356 0.033834502
0.41377333 -0.00049999356 0.035444584
-0.00093663775 0.0051664175 0.034430906
0.0037681926 0.0031911486 0.036532667
0.015127826 0.0010000169 0.035638206
0.024655014 0.0010000169 0.036026131
0.034470815 0.0010000169 0.034602709
0.04436652 0.0010000169 0.037278194
0.055260953 0.0010000169 0.035220787
0.063483216 0.0010000169 0.034762453
0.075212337 0.0010000169 0.03680196
0.085199907 0.0010000169 0.0343442
0.09436816 0.0010000169 0.033182509
0.10426038 0.0010000169 0.034577675
0.116152 0.0010000169 0.03437015
0.12389122 0.0010000169 0.036238242
0.13532032 0.0010000169 0.035013638
0.14499471 0.0010000169 0.034347545
0.15515359 0.0010000169 0.034191079
0.1654259 0.0010000169 0.03446408
0.17492211 0.0010000169 0.035582177
0.18626592 0.0010000169 0.035170548
0.19486456 0.0010000169 0.033654697
0.20400265 0.0010000169 0.035277747
0.21478674 0.0010000169 0.036029857
0.22562435 0.0010000169 0.035149124
0.23460175 0.0010000169 0.034916185
0.24741411 0.0010000169 0.034779452
0.25579482 0.0010000169 0.036117621
0.26519486 0.0010000169 0.034690976
0.2749559 0.0010000169 0.033289947
0.28362328 0.0010000169 0.032682572
0.29488435 0.0010000169 0.035134427
0.3033562 0.0010000169 0.034165896
0.31556705 0.0010000169 0.03445318
0.32494906 0.0010000169 0.033594143
0.33531034 0.0010000169 0.034510344
0.34526712 0.0010000169 0.03449491
0.35443941 0.0010000169 0.035435569
0.365495 0.0010000169 0.034855697
0.37393463 0.0010000169 0.035495583
0.38454092 0.0010000169 0.036109045
0.39586106 0.0010000169 0.034563188
0.40450391 0.0010000169 0.035378825
0.41437179 0.0010000169 0.034626361
-0.00099998713 0.015623665 0.034377709
0.00049999356 0.015385686 0.036016371
-0.00099998713 0.02424328 0.035007875
0.00049999356 0.026972573 0.035039369
-0.00099998713 0.034841802 0.035445575
0.00049999356 0.034921214 0.03474712
-0.00099998713 0.043331936 0.035124123
0.00049999356 0.044986594 0.03469969
-0.00099998713 0.054644864 0.035475414
0.00049999356 0.054665327 0.03540761
-0.00099998713 0.064988427 0.035324704
0.00049999356 0.064265229 0.034438141
-0.00099998713 0.07561437 0.03478054
0.00049999356 0.073547259 0.033493146
-0.00099998713 0.085623622 0.036286857
0.00049999356 0.085915178 0.034128971
-0.00099998713 0.094840109 0.032959245
0.00049999356 0.094744347 0.035896812
-0.00099998713 0.10277469 0.035919555
0.00049999356 0.10495972 0.034501553
-0.00099998713 0.11383072 0.034789164
0.00049999356 0.11519063 0.034756918
-0.00099998713 0.12417075 0.034843229
0.00049999356 0.12552796 0.034850534
-0.00099998713 0.13386598 0.03669196
0.00049999356 0.13553941 0.033933807
-0.00099998713 0.14589058 0.034896456
0.00049999356 0.14475681 0.035165552
-0.00099998713 0.15518132 0.034695603
0.00049999356 0.15439038 0.035309367
-0.00099998713 0.16409366 0.036122575
0.00049999356 0.16425629 0.035468031
-0.00099998713 0.17560689 0.035805542
0.00049999356 0.17733982 0.036585484
-0.00099998713 0.18446684 0.035371471
0.00049999356 0.1851984 0.034798503
-0.00099998713 0.19558889 0.035620045
0.00049999356 0.19298692 0.034350619
-0.00099998713 0.20568427 0.035067361
0.00049999356 0.20639668 0.034634415
-0.00099998713 0.2147838 0.03550053
0.00049999356 0.21585386 0.034351744
-0.00099998713 0.22436742 0.036364246
0.00049999356 0.22476721 0.036244981
-0.00099998713 0.23539871 0.034720797
0.00049999356 0.23501739 0.036983784
-0.00099998713 0.24463551 0.034551032
0.00049999356 0.24523002 0.033926759
-0.00099998713 0.25600752 0.034980692
0.00049999356 0.25372612 0.033969622
-0.00099998713 0.26450899 0.034110487
0.00049999356 0.26515144 0.035974957
-0.00099998713 0.27594522 0.033228625
0.00049999356 0.27433479 0.034615036
-0.00099998713 0.28465748 0.034130331
0.00049999356 0.28320205 0.034752503
-0.00099998713 0.29250756 0.033594206
0.00049999356 0.29525581 0.034462918
-0.00099998713 0.30453527 0.03545269
0.00049999356 0.30478096 0.03428673
-0.00093270064 0.31552011 0.035025798
0.00047073877 0.31576937 0.033565752
0.0049377936 -0.00049999356 0.045734223
0.013793402 -0.00049999356 0.044849053
0.025876714 -0.00049999356 0.045684397
0.03475982 -0.00049999356 0.044507619
0.044949155 -0.00049999356 0.043924253
0.056188364 -0.00049999356 0.044935424
0.063987121 -0.00049999356 0.044925351
0.075527295 -0.00049999356 0.043816049
0.085702702 -0.00049999356 0.044578858
0.095472321 -0.00049999356 0.045242973
0.10467107 -0.00049999356 0.042983633
0.11435745 -0.00049999356 0.045616966
0.12514469 -0.00049999356 0.045221034
0.13592881 -0.00049999356 0.046646532
0.14506117 -0.00049999356 0.045076095
0.1547232 -0.00049999356 0.044575173
0.16509785 -0.00049999356 0.045554094
0.17542762 -0.00049999356 0.04609637
0.1854039 -0.00049999356 0.045726199
0.19412881 -0.00049999356 0.045069143
0.20500641 -0.00049999356 0.044715554
0.21536413 -0.00049999356 0.043913487
0.22590642 -0.00049999356 0.043070275
0.23425704 -0.00049999356 0.045718797
0.24659784 -0.00049999356 0.045836613
0.25559956 -0.00049999356 0.046202563
0.26567829 -0.00049999356 0.045542069
0.27503157 -0.00049999356 0.046178449
0.28385082 -0.00049999356 0.044751871
0.29447892 -0.00049999356 0.0444973
0.30533838 -0.00049999356 0.044951532
0.31603259 -0.00049999356 0.045383684
0.32479554 -0.00049999356 0.046382226
0.33556879 -0.00049999356 0.044698853
0.34356403 -0.00049999356 0.044642627
0.35444593 -0.00049999356 0.045082927
0.36486828 -0.00049999356 0.045613885
0.37417123 -0.00049999356 0.044568378
0.38549045 -0.00049999356 0.04555266
0.39574358 -0.00049999356 0.045608521
0.40553436 -0.00049999356 0.045044072
0.41439891 -0.00049999356 0.046437595
-0.00098440389 0.0057703378 0.046089165
0.0043346277 0.002065541 0.045860596
0.015394663 0.0010000169 0.045745924
0.024350353 0.0010000169 0.043787248
0.036414243 0.0010000169 0.043260835
0.044636901 0.0010000169 0.043360785
0.054290131 0.0010000169 0.043024957
0.065371029 0.0010000169 0.045339637
0.074471675 0.0010000169 0.045109034
0.084328882 0.0010000169 0.044798512
0.095438622 0.0010000169 0.04525093
0.10501104 0.0010000169 0.046028946
0.11415686 0.0010000169 0.046429496
0.12509224 0.0010000169 0.045413829
0.13441703 0.0010000169 0.044805042
0.14380485 0.0010000169 0.044680692
0.15595552 0.0010000169 0.046064258
0.16582367 0.0010000169 0.045286458
0.17445993 0.0010000169 0.045030192
0.18402043 0.0010000169 0.044087343
0.19429235 0.0010000169 0.043984305
0.2045086 0.0010000169 0.043506648
0.2143351 0.0010000169 0.045113556
0.22487745 0.0010000169 0.045988116
0.23431025 0.0010000169 0.044890061
0.24530612 0.0010000169 0.044930097
0.25463343 0.0010000169 0.045284972
0.26543343 0.0010000169 0.044804752
0.27485481 0.0010000169 0.044551954
0.28421378 0.0010000169 0.04629023
0.29514441 0.0010000169 0.044405907
0.30558217 0.0010000169 0.045496777
0.31397337 0.0010000169 0.045794975
0.32447508 0.0010000169 0.044876132
0.33434939 0.0010000169 0.045330312
0.34456447 0.0010000169 0.045318138
0.35510236 0.0010000169 0.043375615
0.36401078 0.0010000169 0.044579569
0.37520123 0.0010000169 0.045049325
0.38701749 0.0010000169 0.045346826
0.39503589 0.0010000169 0.043553267
0.40463594 0.0010000169 0.042645462
0.41287127 0.0010000169 0.044106163
-0.00099998713 0.016235527 0.046042249
0.00049999356 0.014731448 0.04580383
-0.00099998713 0.025089087 0.04617716
0.00049999356 0.025559058 0.044494722
-0.00099998713 0.036131851 0.046009205
0.00049999356 0.035064586 0.044122677
-0.00099998713 0.044928085 0.045757622
0.00049999356 0.04386545 0.044649698
-0.00099998713 0.053201385 0.045844294
0.00049999356 0.055157438 0.045852106
-0.00099998713 0.064273439 0.045458678
0.00049999356 0.064525858 0.044578176
-0.00099998713 0.074741468 0.045560669
0.00049999356 0.075449735 0.045279451
-0.00099998713 0.084752403 0.044958264
0.00049999356 0.085536622 0.045048784
-0.00099998713 0.09553206 0.044978455
0.00049999356 0.095506467 0.044433415
-0.00099998713 0.10451527 0.04545518
0.00049999356 0.10529377 0.046318591
-0.00099998713 0.11584112 0.045315906
0.00049999356 0.11401848 0.045096222
-0.00099998713 0.12458513 0.045499619
0.00049999356 0.12421796 0.044918559
-0.00099998713 0.135124 0.044948716
0.00049999356 0.13402852 0.04600348
-0.00099998713 0.14454827 0.04432017
0.00049999356 0.14511785 0.044284794
-0.00099998713 0.15358134 0.044956535
0.00049999356 0.15676172 0.045095153
-0.00099998713 0.16445263 0.044500466
0.00049999356 0.16574325 0.043624189
-0.00099998713 0.17475992 0.044601124
0.00049999356 0.17495883 0.045610487
-0.00099998713 0.1846555 0.045399684
0.00049999356 0.1841469 0.045302138
-0.00099998713 0.19396332 0.045273911
0.00049999356 0.19593459 0.045036182
-0.00099998713 0.2057512 0.045412716
0.00049999356 0.20555592 0.045233116
-0.00099998713 0.21652405 0.044402145
0.00049999356 0.21463729 0.045906268
-0.00099998713 0.22547866 0.045010626
0.00049999356 0.22560051 0.045214839
-0.00099998713 0.235099 0.045941744
0.00049999356 0.23532854 0.045419402
-0.00099998713 0.24429075 0.045300387
0.00049999356 0.24449444 0.04438616
-0.00099998713 0.25490135 0.046246573
0.00049999356 0.25538251 0.044976365
-0.00099998713 0.26432669 0.045281697
0.00049999356 0.2652376 0.044231579
-0.00099998713 0.27547836 0.045938611
0.00049999356 0.27342743 0.046595659
-0.00099998713 0.28556845 0.044455871
0.00049999356 0.28466055 0.045023963
-0.00099998713 0.29437366 0.045986619
0.00049999356 0.2946713 0.044944849
-0.00099998713 0.30745971 0.044091698
0.00049999356 0.30507344 0.044767436
-0.00089415122 0.31564841 0.045242868
0.00047066444 0.31544515 0.044538353
0.004488802 -0.00041693629 0.055567693
0.015713299 -0.00049999356 0.053590257
0.024870928 -0.00049999356 0.056293644
0.035010047 -0.00049999356 0.055574507
0.046242647 -0.00049999356 0.054532982
0.055562958 -0.00049999356 0.05501502
0.065280288 -0.00049999356 0.054940745
0.075078353 -0.00049999356 0.054052707
0.084646702 -0.00049999356 0.054579675
0.096164703 -0.00049999356 0.056064412
0.10508973 -0.00049999356 0.056537591
0.11432806 -0.00049999356 0.053868569
0.12406664 -0.00049999356 0.054698389
0.13566266 -0.00049999356 0.055002302
0.14433205 -0.00049999356 0.056122858
0.15565866 -0.00049999356 0.055408001
0.16481106 -0.00049999356 0.05515933
0.17501074 -0.00049999356 0.054888122
0.18485512 -0.00049999356 0.054477137
0.19482203 -0.00049999356 0.054672863
0.20477967 -0.00049999356 0.055791505
0.2152444 -0.00049999356 0.054598443
0.22551915 -0.00049999356 0.054903291
0.2348358 -0.00049999356 0.054217197
0.24317633 -0.00049999356 0.054750271
0.2541956 -0.00049999356 0.056077026
0.26411092 -0.00049999356 0.054349255
0.27538928 -0.00049999356 0.054239709
0.28452861 -0.00049999356 0.055600751
0.29534483 -0.00049999356 0.055160012
0.30503064 -0.00049999356 0.05427568
0.31613061 -0.00049999356 0.05364275
0.32567984 -0.00049999356 0.054657817
0.33673793 -0.00049999356 0.055079557
0.34479281 -0.00049999356 0.054575544
0.35577255 -0.00049999356 0.056245822
0.36408502 -0.00049999356 0.054777697
0.37400115 -0.00049999356 0.054079551
0.38600239 -0.00049999356 0.055259813
0.39468145 -0.00049999356 0.05815037
0.40509561 -0.00049999356 0.055400219
0.41325581 -0.00049999356 0.05548355
-0.00091357174 0.0047637713 0.056138366
0.0021809866 0.0032785968 0.054553576
0.014178864 0.0010000169 0.054356944
0.024345366 0.0010000169 0.053768106
0.034714621 0.0010000169 0.054462053
0.045641195 0.0010000169 0.056303967
0.054510605 0.0010000169 0.054262932
0.066896841 0.0010000169 0.052793935
0.075925499 0.0010000169 0.054875385
0.084735356 0.0010000169 0.05554685
0.095288984 0.0010000169 0.054816362
0.10358314 0.0010000169 0.054950465
0.11472344 0.0010000169 0.055719744
0.12524758 0.0010000169 0.05297225
0.13454787 0.0010000169 0.054978032
0.14521874 0.0010000169 0.056036539
0.15478663 0.0010000169 0.053866822
0.16483115 0.0010000169 0.055329714
0.17376889 0.0010000169 0.055025443
0.18596452 0.0010000169 0.054694653
0.19404943 0.0010000169 0.054168798
0.20530057 0.0010000169 0.055799544
0.21628018 0.0010000169 0.054757502
0.22559227 0.0010000169 0.054090265
0.2347863 0.0010000169 0.055855505
0.24607725 0.0010000169 0.05500384
0.25521612 0.0010000169 0.054566536
0.26413155 0.0010000169 0.053717926
0.27698076 0.0010000169 0.055526368
0.28495434 0.0010000169 0.054467212
0.29535758 0.0010000169 0.055481669
0.30390432 0.0010000169 0.055088267
0.31441566 0.0010000169 0.055281822
0.32507312 0.0010000169 0.054557886
0.33388123 0.0010000169 0.055223215
0.34342515 0.0010000169 0.053961676
0.3539032 0.0010000169 0.057232752
0.36411875 0.0010000169 0.053497959
0.37501207 0.0010000169 0.054774456
0.38507688 0.0010000169 0.054935191
0.39748138 0.0010000169 0.054663509
0.40430051 0.0010000169 0.05496015
0.41241652 0.0010000169 0.054104231
-0.00099998713 0.015184849 0.054230079
0.00049999356 0.015628191 0.054275081
-0.00099998713 0.026603619 0.05318268
0.00049999356 0.024427511 0.053831249
-0.00099998713 0.035437938 0.055681862
0.00049999356 0.036259025 0.055301879
-0.00099998713 0.044242829 0.053809494
0.00049999356 0.045906242 0.054780792
-0.00099998713 0.054722648 0.055891551
0.00049999356 0.054679088 0.054593697
-0.00099998713 0.064051822 0.054720372
0.00049999356 0.063272968 0.054092649
-0.00099998713 0.074407816 0.054323401
0.00049999356 0.075157374 0.055611905
-0.00099998713 0.086203068 0.055159468
0.00049999356 0.085889272 0.054211911
-0.00099998713 0.094735488 0.055214815
0.00049999356 0.09611991 0.053913131
-0.00099998713 0.10361373 0.05379083
0.00049999356 0.10472067 0.055301107
-0.00099998713 0.1153494 0.055028658
0.00049999356 0.11504243 0.056951083
-0.00099998713 0.12542228 0.055390574
0.00049999356 0.12457252 0.053615108
-0.00099998713 0.13529825 0.056056943
0.00049999356 0.13511151 0.054432094
-0.00099998713 0.14571951 0.055172484
0.00049999356 0.14683105 0.054955341
-0.00099998713 0.15570106 0.056508351
0.00049999356 0.15608165 0.055222437
-0.00099998713 0.16532341 0.055913121
0.00049999356 0.16508901 0.055227049
-0.00099998713 0.17407773 0.055581853
0.00049999356 0.17477988 0.054155432
-0.00099998713 0.18598348 0.054795679
0.00049999356 0.18557122 0.054484546
-0.00099998713 0.19485225 0.054878116
0.00049999356 0.1950267 0.054905679
-0.00099998713 0.20463935 0.05447768
0.00049999356 0.20471711 0.055414744
-0.00099998713 0.21418358 0.056518011
0.00049999356 0.21407609 0.055931512
-0.00099998713 0.22555819 0.055051029
0.00049999356 0.22592849 0.05298641
-0.00099998713 0.23446926 0.053603631
0.00049999356 0.23378678 0.055295825
-0.00099998713 0.24568322 0.053473286
0.00049999356 0.24424216 0.0548154
-0.00099998713 0.25488511 0.053817451
0.00049999356 0.2561745 0.05458625
-0.00099998713 0.26467475 0.054495689
0.00049999356 0.26542997 0.05473436
-0.00099998713 0.27501443 0.055969138
0.00049999356 0.27527544 0.053919774
-0.00099998713 0.28589231 0.05404643
0.00049999356 0.28499925 0.054276466
-0.00099998713 0.29555848 0.055272058
0.00049999356 0.29543591 0.055140335
-0.00096993131 0.30559075 0.055096436
0.00049999356 0.30525911 0.055726193
-0.00098000292 0.31487146 0.054621354
0.000493086 0.31451875 0.054406609
0.0060103997 -0.00047895178 0.063705496
0.014529802 -0.00049999356 0.065787889
0.024267077 -0.00049999356 0.066000424
0.034666523 -0.00049999356 0.064785443
0.045252506 -0.00049999356 0.065761648
0.056001041 -0.00049999356 0.063821226
0.065101698 -0.00049999356 0.063994981
0.075117148 -0.00049999356 0.065800026
0.086319655 -0.00049999356 0.063980415
0.09574458 -0.00049999356 0.065341607
0.10596678 -0.00049999356 0.063693374
0.11335714 -0.00049999356 0.063995078
0.12501353 -0.00049999356 0.064481892
0.13559537 -0.00049999356 0.065093182
0.14433752 -0.00049999356 0.06425941
0.15383945 -0.00049999356 0.064496614
0.16568008 -0.00049999356 0.065646693
0.17529763 -0.00049999356 0.065236613
0.18544252 -0.00049999356 0.065765694
0.1949493 -0.00049999356 0.064256966
0.20570055 -0.00049999356 0.064996809
0.21397878 -0.00049999356 0.063268527
0.22388758 -0.00049999356 0.066649601
0.2357479 -0.00049999356 0.066599526
0.24572831 -0.00049999356 0.065059341
0.25467259 -0.00049999356 0.064430788
0.26534599 -0.00049999356 0.064150587
0.27660349 -0.00049999356 0.064126879
0.2839753 -0.00049999356 0.065341249
0.29504165 -0.00049999356 0.065573625
0.30395108 -0.00049999356 0.066276714
0.31450602 -0.00049999356 0.064034678
0.32584926 -0.00049999356 0.063689798
0.3344928 -0.00049999356 0.067193925
0.34535977 -0.00049999356 0.066339381
0.35453001 -0.00049999356 0.064296626
0.36621374 -0.00049999356 0.064100802
0.37450758 -0.00049999356 0.064790204
0.3840856 -0.00049999356 0.065107591
0.39344779 -0.00049999356 0.063349359
0.40604648 -0.00049999356 0.06493368
0.41210032 -0.00049999356 0.06544932
-0.00089839986 0.0053804102 0.066010877
0.003494164 0.0033383719 0.065189406
0.015148568 0.0010000169 0.063969962
0.026025467 0.0010000169 0.064172208
0.034813363 0.0010000169 0.065575771
0.044242866 0.0010000169 0.064886004
0.055710394 0.0010000169 0.064006738
0.06397251 0.0010000169 0.064442873
0.075507313 0.0010000169 0.065534033
0.084259659 0.0010000169 0.065043159
0.095460653 0.0010000169 0.06434831
0.1051172 0.0010000169 0.063710392
0.11502618 0.0010000169 0.065558702
0.12569803 0.0010000169 0.064616069
0.13684206 0.0010000169 0.066435806
0.14558448 0.0010000169 0.06482856
0.15451381 0.0010000169 0.064758457
0.16511938 0.0010000169 0.063886426
0.1754799 0.0010000169 0.065757655
0.18509802 0.0010000169 0.065447062
0.19411349 0.0010000169 0.065138623
0.2044899 0.0010000169 0.064716883
0.21484229 0.0010000169 0.063314073
0.22563407 0.0010000169 0.063820258
0.23475516 0.0010000169 0.064917304
0.24523385 0.0010000169 0.066101596
0.25466964 0.0010000169 0.065196894
0.26343173 0.0010000169 0.064154327
0.27686751 0.0010000169 0.06518361
0.28326586 0.0010000169 0.064294539
0.29441714 0.0010000169 0.065844618
0.30616865 0.0010000169 0.065606304
0.31500924 0.0010000169 0.065034479
0.32550997 0.0010000169 0.064643919
0.3355971 0.0010000169 0.064332947
0.34457278 0.0010000169 0.066577129
0.35628384 0.0010000169 0.065721564
0.36532858 0.0010000169 0.065112777
0.37651196 0.0010000169 0.066277578
0.38570321 0.0010000169 0.06656523
0.3941232 0.0010000169 0.063256696
0.40614259 0.0010000169 0.063556254
0.41066685 0.0010000169 0.065689161
-0.00099998713 0.014795727 0.067277819
0.00049999356 0.013798442 0.065589949
-0.00099998713 0.02601837 0.064168736
0.00049999356 0.024442742 0.065966092
-0.00099998713 0.035563279 0.066773728
0.00049999356 0.035949562 0.064909771
-0.00099998713 0.044997737 0.065042667
0.00049999356 0.043581061 0.065459512
-0.00099998713 0.054673702 0.064865716
0.00049999356 0.056870013 0.064228922
-0.00099998713 0.064419024 0.065323867
0.00049999356 0.065314971 0.066709273
-0.00099998713 0.075257219 0.065676942
0.00049999356 0.07439965 0.064958222
-0.00099998713 0.085939609 0.063957699
0.00049999356 0.084610671 0.065382548
-0.00099998713 0.094828837 0.065123975
0.00049999356 0.096193589 0.064249136
-0.00099998713 0.10356511 0.062768407
0.00049999356 0.10469788 0.064827472
-0.00099998713 0.11460643 0.064952798
0.00049999356 0.11493003 0.064393476
-0.00099998713 0.12516399 0.064578459
0.00049999356 0.12554219 0.064871922
-0.00099998713 0.13427265 0.064217433
0.00049999356 0.13586263 0.065823272
-0.00099998713 0.14625804 0.065250866
0.00049999356 0.14598876 0.065233208
-0.00099998713 0.15413366 0.06391719
0.00049999356 0.15460445 0.065641135
-0.00099998713 0.16519292 0.065111071
0.00049999356 0.1653668 0.065046594
-0.00099998713 0.17488545 0.064466164
0.00049999356 0.17491671 0.064632222
-0.00099998713 0.18719991 0.064495228
0.00049999356 0.18518692 0.064519003
-0.00099998713 0.19387427 0.064790703
0.00049999356 0.19736239 0.06620381
-0.00099998713 0.20509341 0.064965524
0.00049999356 0.2039683 0.064771704
-0.00099998713 0.21506557 0.064961627
0.00049999356 0.21454245 0.065332688
-0.00099998713 0.224372 0.065427728
0.00049999356 0.22457178 0.064146377
-0.00099998713 0.23566066 0.064878523
0.00049999356 0.23518281 0.064318836
-0.00099998713 0.24447902 0.064842708
0.00049999356 0.2444324 0.065471135
-0.00099998713 0.25424406 0.065305628
0.00049999356 0.25466415 0.06499847
-0.00099998713 0.26596594 0.064492926
0.00049999356 0.26496556 0.064061545
-0.00099998713 0.27629092 0.064414442
0.00049999356 0.27279845 0.067386322
-0.00099998713 0.28576204 0.064349659
0.00049999356 0.28589118 0.066126354
-0.00099998713 0.29540962 0.065951385
0.00049999356 0.29420865 0.065770186
-0.00099998713 0.30648744 0.064849801
0.00049999356 0.30553648 0.065005206
-0.00095394324 0.31529596 0.063969873
0.00049167697 0.31463942 0.065547474
0.0056355181 -0.00048078151 0.075449534
0.014907337 -0.00049999356 0.075024493
0.026492294 -0.00049999356 0.074399129
0.033866692 -0.00049999356 0.073852658
0.045041375 -0.00049999356 0.076880179
0.055005178 -0.00049999356 0.075850919
0.066628948 -0.00049999356 0.074252531
0.074496001 -0.00049999356 0.073976308
0.084876768 -0.00049999356 0.07498768
0.093924284 -0.00049999356 0.074970797
0.1054652 -0.00049999356 0.074360512
0.11535908 -0.00049999356 0.074513637
0.12432797 -0.00049999356 0.073811144
0.13421521 -0.00049999356 0.075096376
0.14440589 -0.00049999356 0.075870134
0.15510666 -0.00049999356 0.073966317
0.16380993 -0.00049999356 0.075493023
0.17434292 -0.00049999356 0.075417772
0.18377891 -0.00049999356 0.074645862
0.19504051 -0.00049999356 0.074649692
0.20721631 -0.00049999356 0.075016066
0.21470201 -0.00049999356 0.074658595
0.22568035 -0.00049999356 0.074966908
0.23478459 -0.00049999356 0.074977197
0.24389292 -0.00049999356 0.074222133
0.25504717 -0.00049999356 0.076181918
0.2654402 -0.00049999356 0.07617151
0.27540717 -0.00049999356 0.074002527
0.28501856 -0.00049999356 0.075476669
0.29442307 -0.00049999356 0.074303351
0.3051194 -0.00049999356 0.074795447
0.31437448 -0.00049999356 0.075786181
0.32646364 -0.00049999356 0.075010791
0.33504996 -0.00049999356 0.075954013
0.34567758 -0.00049999356 0.072727077
0.3558585 -0.00049999356 0.075858086
0.36502671 -0.00049999356 0.074601449
0.37469122 -0.00049999356 0.074174449
0.38461515 -0.00049999356 0.075012483
0.39425668 -0.00049999356 0.073540315
0.40564463 -0.00049999356 0.075791255
0.41243011 -0.00049999356 0.074115254
-0.00092276238 0.0047653243 0.075764328
0.0020880701 0.0036721176 0.07460966
0.01579768 0.0010000169 0.074930206
0.023541525 0.0010000169 0.075276047
0.034566756 0.0010000169 0.07467334
0.045070264 0.0010000169 0.074910574
0.054304503 0.0010000169 0.074769251
0.065645814 0.0010000169 0.074559435
0.074207857 0.0010000169 0.07428088
0.085221998 0.0010000169 0.075512119
0.096336223 0.0010000169 0.074820049
0.10581396 0.0010000169 0.075967707
0.11658826 0.0010000169 0.075108267
0.12514113 0.0010000169 0.074439391
0.13353539 0.0010000169 0.075265616
0.14421411 0.0010000169 0.074282393
0.15529147 0.0010000169 0.07365074
0.16619739 0.0010000169 0.074780315
0.17589457 0.0010000169 0.075801603
0.18541282 0.0010000169 0.074472584
0.19419204 0.0010000169 0.075472713
0.20520392 0.0010000169 0.074753843
0.2147608 0.0010000169 0.074487932
0.224199 0.0010000169 0.074979164
0.23474382 0.0010000169 0.075909637
0.24445538 0.0010000169 0.074172154
0.25522605 0.0010000169 0.074616171
0.2639764 0.0010000169 0.075015113
0.27532884 0.0010000169 0.073715389
0.2847394 0.0010000169 0.07525456
0.29437417 0.0010000169 0.075791799
0.30562335 0.0010000169 0.075312071
0.31551063 0.0010000169 0.074968651
0.32462925 0.0010000169 0.075094946
0.33470476 0.0010000169 0.074335188
0.34485933 0.0010000169 0.076174498
0.35437822 0.0010000169 0.07659848
0.36560264 0.0010000169 0.073975213
0.37492123 0.0010000169 0.075803705
0.38452861 0.0010000169 0.074218556
0.39517683 0.0010000169 0.075393066
0.40614665 0.0010000169 0.074647151
0.41300792 0.0010000169 0.075292245
-0.00099998713 0.013699165 0.074840017
0.00049999356 0.015849445 0.074395984
-0.00099998713 0.023062777 0.074226446
0.00049999356 0.024511125 0.075098343
-0.00099998713 0.03369797 0.075515047
0.00049999356 0.035185464 0.074062862
-0.00099998713 0.04425025 0.074102931
0.00049999356 0.044774089 0.07517267
-0.00099998713 0.054358158 0.074522838
0.00049999356 0.054666366 0.076349691
-0.00099998713 0.06517861 0.074302971
0.00049999356 0.065146402 0.075607084
-0.00099998713 0.074749 0.076757714
0.00049999356 0.074528903 0.075203232
-0.00099998713 0.08617872 0.073864803
0.00049999356 0.085594952 0.075568914
-0.00099998713 0.096315622 0.075939395
0.00049999356 0.094921142 0.075268999
-0.00099998713 0.10563752 0.075183228
0.00049999356 0.10408603 0.075806685
-0.00099998713 0.11653817 0.075508729
0.00049999356 0.11532682 0.074642427
-0.00099998713 0.12564506 0.075364105
0.00049999356 0.12593111 0.07535737
-0.00099998713 0.13511765 0.073779322
0.00049999356 0.13590434 0.074364528
-0.00099998713 0.14369576 0.074383646
0.00049999356 0.14579843 0.074162006
-0.00099998713 0.15545312 0.075122282
0.00049999356 0.15519626 0.075984426
-0.00099998713 0.16415316 0.074705236
0.00049999356 0.1656334 0.074530423
-0.00099998713 0.17474778 0.074312381
0.00049999356 0.17518392 0.075171985
-0.00099998713 0.18444537 0.07410641
0.00049999356 0.18377484 0.075243421
-0.00099998713 0.19437918 0.075345106
0.00049999356 0.19476247 0.073992625
-0.00099998713 0.20536385 0.074469261
0.00049999356 0.20452292 0.075477168
-0.00099998713 0.21447699 0.074912608
0.00049999356 0.21596116 0.075270146
-0.00099998713 0.22537966 0.075668097
0.00049999356 0.22390908 0.075087272
-0.00099998713 0.23542996 0.074381307
0.00049999356 0.2342485 0.076017827
-0.00099998713 0.24501766 0.075893715
0.00049999356 0.24420042 0.075456187
-0.00099998713 0.25539085 0.074639723
0.00049999356 0.25482157 0.075508468
-0.00099998713 0.26484904 0.074997649
0.00049999356 0.26429269 0.074362412
-0.00099998713 0.27514446 0.074857339
0.00049999356 0.27627102 0.07504072
-0.00099998713 0.28596404 0.074298084
0.00049999356 0.28553876 0.074906051
-0.00099998713 0.29476985 0.074517779
0.00049999356 0.29535615 0.075078316
-0.00099998713 0.30543566 0.075377971
0.00049999356 0.30434397 0.074816518
-0.00099998713 0.3146567 0.076112203
0.00049428036 0.31510109 0.073202595
0.0055741919 -0.00048854284 0.084496088
0.014891152 -0.00049999356 0.084669396
0.024885783 -0.00049999356 0.085213132
0.035705227 -0.00049999356 0.083627
0.045560695 -0.00049999356 0.085406311
0.055007473 -0.00049999356 0.08522132
0.065703526 -0.00049999356 0.085151203
0.075080737 -0.00049999356 0.085900113
0.085163139 -0.00049999356 0.086239591
0.095021702 -0.00049999356 0.083653234
0.10488862 -0.00049999356 0.085754842
0.11531241 -0.00049999356 0.085441776
0.12457114 -0.00049999356 0.084411755
0.13537693 -0.00049999356 0.084292427
0.14507134 -0.00049999356 0.085682966
0.15556315 -0.00049999356 0.086587027
0.16495684 -0.00049999356 0.084890381
0.17548943 -0.00049999356 0.085107163
0.18495704 -0.00049999356 0.085663982
0.1958559 -0.00049999356 0.085247286
0.20468217 -0.00049999356 0.085437387
0.21549688 -0.00049999356 0.086698577
0.22462133 -0.00049999356 0.084703363
0.23559053 -0.00049999356 0.085232593
0.24482454 -0.00049999356 0.084123023
0.25316578 -0.00049999356 0.086233526
0.26553136 -0.00049999356 0.084919363
0.27401099 -0.00049999356 0.085665226
0.28469339 -0.00049999356 0.08581657
0.29565975 -0.00049999356 0.086106956
0.3050313 -0.00049999356 0.085460551
0.31362942 -0.00049999356 0.086324796
0.32461667 -0.00049999356 0.084757775
0.33331946 -0.00049999356 0.085432194
0.34538504 -0.00049999356 0.085881546
0.35448453 -0.00049999356 0.085108832
0.36550856 -0.00049999356 0.085276462
0.37420574 -0.00049999356 0.086347841
0.38627928 -0.00049999356 0.086050428
0.39549494 -0.00049999356 0.085395992
0.40568569 -0.00049999356 0.083087601
0.41230538 -0.00049999356 0.085910283
-0.00082074822 0.004341722 0.084355637
0.0041593229 0.0020280571 0.084932677
0.014905834 0.0010000169 0.084962495
0.02575987 0.0010000169 0.085635178
0.03545884 0.0010000169 0.085477725
0.045680404 0.0010000169 0.083756089
0.056824878 0.0010000169 0.084422074
0.065409258 0.0010000169 0.085455827
0.075573593 0.0010000169 0.085168265
0.085562378 0.0010000169 0.084355444
0.094796076 0.0010000169 0.085189439
0.10562078 0.0010000169 0.084706746
0.11598592 0.0010000169 0.084982246
0.1249617 0.0010000169 0.084817857
0.13543002 0.0010000169 0.083671905
0.14461781 0.0010000169 0.085961446
0.15594828 0.0010000169 0.08572562
0.16622749 0.0010000169 0.086000472
0.17479104 0.0010000169 0.083572283
0.18540102 0.0010000169 0.08470279
0.19653122 0.0010000169 0.084892355
0.20485672 0.0010000169 0.084938973
0.21572788 0.0010000169 0.084227994
0.22301018 0.0010000169 0.084667414
0.23469588 0.0010000169 0.085669085
0.24531458 0.0010000169 0.086137891
0.25514477 0.0010000169 0.085884824
0.26536921 0.0010000169 0.084564775
0.27426776 0.0010000169 0.087138444
0.28521669 0.0010000169 0.084715895
0.2954689 0.0010000169 0.083770819
0.30496803 0.0010000169 0.084745444
0.31442958 0.0010000169 0.084210895
0.32525697 0.0010000169 0.084362589
0.33486828 0.0010000169 0.085154153
0.34625086 0.0010000169 0.085244887
0.35469434 0.0010000169 0.084993683
0.36525005 0.0010000169 0.085046776
0.37577963 0.0010000169 0.085523494
0.38600683 0.0010000169 0.086737446
0.3963576 0.0010000169 0.085438982
0.4052971 0.0010000169 0.086675696
0.41031364 0.0010000169 0.088861682
-0.00099998713 0.014592622 0.086371608
0.00049999356 0.014668905 0.084504545
-0.00099998713 0.025055418 0.084908076
0.00049999356 0.025552031 0.083239868
-0.00099998713 0.037203334 0.08636684
0.00049999356 0.034954783 0.084000103
-0.00099998713 0.044462223 0.084845558
0.00049999356 0.045657638 0.085637957
-0.00099998713 0.055191867 0.084572114
0.00049999356 0.055595122 0.085548021
-0.00099998713 0.064802177 0.084646955
0.00049999356 0.065315597 0.08458066
-0.00099998713 0.075409614 0.085456967
0.00049999356 0.075099498 0.08476954
-0.00099998713 0.085079305 0.084656097
0.00049999356 0.084133089 0.084819995
-0.00099998713 0.095836274 0.084996663
0.00049999356 0.095890589 0.085044533
-0.00099998713 0.10551067 0.084441356
0.00049999356 0.10507546 0.085406795
-0.00099998713 0.11447252 0.084994227
0.00049999356 0.11585431 0.084394887
-0.00099998713 0.12531047 0.083577089
0.00049999356 0.12547722 0.085281663
-0.00099998713 0.1351992 0.084456265
0.00049999356 0.13367824 0.084468052
-0.00099998713 0.14594467 0.084863506
0.00049999356 0.14526857 0.084539525
-0.00099998713 0.15581137 0.085605793
0.00049999356 0.15593694 0.084712639
-0.00099998713 0.16540666 0.085439309
0.00049999356 0.16420935 0.085029811
-0.00099998713 0.17618726 0.084131382
0.00049999356 0.17507023 0.085926436
-0.00099998713 0.18476541 0.086050361
0.00049999356 0.18600962 0.084501028
-0.00099998713 0.19639145 0.086133622
0.00049999356 0.19507396 0.084345438
-0.00099998713 0.20476003 0.084502906
0.00049999356 0.20624068 0.085407719
-0.00099998713 0.21431053 0.083684087
0.00049999356 0.21492544 0.084805578
-0.00099998713 0.22451584 0.084697127
0.00049999356 0.22347851 0.084435903
-0.00099998713 0.23712467 0.086032361
0.00049999356 0.23515762 0.084862821
-0.00099998713 0.2457466 0.08471866
0.00049999356 0.24490283 0.084074229
-0.00099998713 0.25469083 0.084186547
0.00049999356 0.25538695 0.083615988
-0.00099998713 0.26556927 0.08516451
0.00049999356 0.26441452 0.084904723
-0.00099998713 0.27471796 0.083913572
0.00049999356 0.275231 0.085419498
-0.00099998713 0.28465131 0.084717892
0.00049999356 0.28464523 0.086173087
-0.00099998713 0.29437625 0.084511802
0.00049999356 0.29417381 0.086285122
-0.00099998713 0.30502504 0.084903203
0.00049999356 0.30523911 0.086698525
-0.0009240674 0.31492838 0.085164689
0.00045625388 0.31461236 0.085892454
0.0062245461 -0.00047067311 0.094803065
0.015057223 -0.00049999356 0.094929717
0.02479504 -0.00049999356 0.094814882
0.03392005 -0.00049999356 0.094247289
0.045930155 -0.00049999356 0.094846837
0.053717937 -0.00049999356 0.094926566
0.065333493 -0.00049999356 0.095578678
0.076416649 -0.00049999356 0.095033996
0.084832989 -0.00049999356 0.094175912
0.096449964 -0.00049999356 0.09661825
0.10313222 -0.00049999356 0.095589735
0.11607594 -0.00049999356 0.095164455
0.12464785 -0.00049999356 0.093916148
0.13437916 -0.00049999356 0.094109967
0.14467753 -0.00049999356 0.094733164
0.15568231 -0.00049999356 0.095800683
0.16547692 -0.00049999356 0.094655685
0.17599122 -0.00049999356 0.096362919
0.1846121 -0.00049999356 0.094785534
0.19506611 -0.00049999356 0.095975503
0.2033229 -0.00049999356 0.095097348
0.21464898 -0.00049999356 0.094527029
0.22620507 -0.00049999356 0.09432815
0.23481797 -0.00049999356 0.094132937
0.24579498 -0.00049999356 0.093927011
0.2551446 -0.00049999356 0.095798798
0.26443604 -0.00049999356 0.093748659
0.27599156 -0.00049999356 0.095362946
0.28406867 -0.00049999356 0.095257878
0.29505718 -0.00049999356 0.09437456
0.30483931 -0.00049999356 0.0947669
0.31621307 -0.00049999356 0.094326355
0.32420656 -0.00049999356 0.096098609
0.33456582 -0.00049999356 0.095444754
0.34449238 -0.00049999356 0.093967728
0.35544756 -0.00049999356 0.09511742
0.36507645 -0.00049999356 0.094651476
0.37510252 -0.00049999356 0.093323268
0.38482025 -0.00049999356 0.096044958
0.39497703 -0.00049999356 0.093403243
0.40492049 -0.00049999356 0.094560966
0.41063911 -0.00049999356 0.095099345
-0.00095363852 0.0055407449 0.094283625
0.0024819409 0.0032214525 0.094625086
0.01477928 0.0010000169 0.09472885
0.02623398 0.0010000169 0.094776772
0.035433374 0.0010000169 0.0968602
0.045732316 0.0010000169 0.093868405
0.055166803 0.0010000169 0.09462253
0.06680046 0.0010000169 0.094503343
0.073125981 0.0010000169 0.095525973
0.084403925 0.0010000169 0.095133342
0.094884008 0.0010000169 0.093737476
0.10544558 0.0010000169 0.094052508
0.11473463 0.0010000169 0.095511779
0.12533127 0.0010000169 0.094477385
0.13458458 0.0010000169 0.094374634
0.14398038 0.0010000169 0.095020823
0.15543289 0.0010000169 0.095455579
0.16628173 0.0010000169 0.09598434
0.17537113 0.0010000169 0.094408773
0.18573689 0.0010000169 0.094242126
0.19498992 0.0010000169 0.095750488
0.20596595 0.0010000169 0.095979698
0.21456419 0.0010000169 0.094518468
0.22417179 0.0010000169 0.094254576
0.23365121 0.0010000169 0.095020868
0.24498695 0.0010000169 0.094642378
0.25596321 0.0010000169 0.095775396
0.26348856 0.0010000169 0.094739452
0.27507666 0.0010000169 0.094406068
0.28475022 0.0010000169 0.094149582
0.29478738 0.0010000169 0.095250525
0.30474848 0.0010000169 0.093419343
0.31406954 0.0010000169 0.094058722
0.32518306 0.0010000169 0.094089642
0.33547682 0.0010000169 0.093595296
0.34709799 0.0010000169 0.094684727
0.35461879 0.0010000169 0.096019216
0.36660758 0.0010000169 0.093451254
0.37513313 0.0010000169 0.096038818
0.38518921 0.0010000169 0.09484487
0.39568329 0.0010000169 0.094917811
0.40414968 0.0010000169 0.094366044
0.41088432 0.0010000169 0.096138984
-0.00099998713 0.015667975 0.094673783
0.00049999356 0.016564718 0.095660642
-0.00099998713 0.024793236 0.095035098
0.00049999356 0.024960123 0.095333323
-0.00099998713 0.034316294 0.095385268
0.00049999356 0.034941509 0.096053757
-0.00099998713 0.044909913 0.094770685
0.00049999356 0.045733113 0.094807811
-0.00099998713 0.055221062 0.095552295
0.00049999356 0.056021992 0.094902329
-0.00099998713 0.06592682 0.095149413
0.00049999356 0.064829625 0.094521306
-0.00099998713 0.074461088 0.09385965
0.00049999356 0.07451164 0.094014682
-0.00099998713 0.084991723 0.094912723
0.00049999356 0.085870788 0.095124163
-0.00099998713 0.094758034 0.095813014
