# .PCD v0.7 - Point Cloud Data file format
VERSION 0.7
FIELDS x y z
SIZE 4 4 4
TYPE F F F
COUNT 1 1 1
WIDTH 128
HEIGHT 1
VIEWPOINT 0 0 0 1 0 0 0
POINTS 128
DATA ascii
-0.0027183692 -0.062914819 -0.031250168
0.0025689243 -0.063033812 -0.031347327
-0.0032293673 -0.055695094 -0.0306716
0.0034020282 -0.055568658 -0.030568523
-0.0031754158 -0.045453195 -0.031285148
0.0030817462 -0.045244303 -0.031373736
-0.002969831 0.045211464 -0.031315494
0.0030024112 0.045210429 -0.031218052
-0.0034004159 0.055620853 -0.030606037
0.0033960058 0.055565838 -0.030576773
-0.0027441268 0.06296131 -0.031241516
0.0027510002 0.063049532 -0.031153794
-0.0031191604 -0.063328765 -0.027125051
0.0031842892 -0.063402452 -0.027174802
-0.0035833234 -0.055879146 -0.027181385
0.0034700476 -0.055737931 -0.027069211
-0.0034476756 -0.045020591 -0.027074184
0.0034131815 -0.044962931 -0.027027084
-0.0042115068 -0.037072755 -0.02503469
0.0044214306 -0.037078448 -0.024950856
-0.0043639392 0.037038561 -0.02491047
0.0042410912 0.037093621 -0.024936128
-0.0034699617 0.045120724 -0.027078388
0.0034573381 0.045012984 -0.027037201
-0.0035287004 0.055788878 -0.027121611
0.0034906112 0.055831335 -0.02711682
-0.0031298534 0.063317865 -0.027153397
0.0032187284 0.063298292 -0.027155533
-0.0043397113 -0.036540993 -0.014959817
0.004320309 -0.036484692 -0.015021249
-0.0031556294 -0.023289038 -0.011238825
0.0033307958 -0.023301441 -0.011200774
-0.010562371 -0.012865639 -0.010487896
-0.0050822794 -0.014962522 -0.01319303
0.0050724861 -0.01481931 -0.013248436
0.010448159 -0.013203516 -0.010603884
-0.010579132 -0.0056544067 -0.010588226
-0.0053642117 -0.004898557 -0.013615132
0.0054227593 -0.0049936003 -0.013602676
0.010612822 -0.0049711494 -0.010555607
-0.010570572 0.0045346483 -0.010599514
-0.0051293136 0.0052417521 -0.013712522
0.0054506483 0.0049733561 -0.013591051
0.010612975 0.0048685097 -0.010558839
-0.01055853 0.012975447 -0.01052892
-0.005195546 0.014907188 -0.013174159
0.0052889311 0.014968948 -0.013119751
0.010458538 0.012901211 -0.010613741
-0.0029615539 0.023343125 -0.011295585
0.0032116515 0.023140986 -0.011273092
-0.0044463309 0.036433812 -0.015032751
0.0042425212 0.036409415 -0.014933067
-0.0021983283 -0.040791929 -0.0021497281
0.0023173839 -0.04087501 -0.0020239728
-0.0039270087 -0.03567848 -0.0041901846
0.0039717928 -0.035601072 -0.0042257481
-0.011254029 -0.023280542 -0.0031806729
-0.005322577 -0.026574645 -0.0053017396
0.0053157718 -0.026729794 -0.0051402878
0.011277281 -0.023306701 -0.0030312047
-0.013122856 -0.015161228 -0.0051758122
-0.0093946271 -0.019153655 -0.0095694689
0.0095392382 -0.018958883 -0.0095327077
0.013237463 -0.015053033 -0.0049886303
-0.013729984 -0.0051446841 -0.0051164208
0.013657522 -0.0048064217 -0.0052673388
-0.013643595 0.0050197043 -0.0052651209
0.01367196 0.0049235718 -0.0052177566
-0.013213513 0.015013942 -0.0050206198
-0.0094108284 0.019281806 -0.0095006032
0.0093671549 0.019328238 -0.0095103113
0.013213446 0.014917811 -0.0050847814
-0.011311761 0.023174418 -0.0030920764
-0.0051187174 0.026552068 -0.0051961392
0.0050718854 0.026612116 -0.0050925631
0.01121509 0.023271253 -0.0032695096
-0.0039335527 0.035585765 -0.0042826449
0.004049344 0.035625871 -0.0041567888
-0.0023917793 0.040831748 -0.001973144
0.0022030273 0.040856682 -0.0021759265
-0.0022337863 -0.040844731 0.0021719025
0.0021485963 -0.040765852 0.0022895732
-0.0036323974 -0.035454158 0.0036114217
0.0036135188 -0.035436116 0.003699539
-0.011246491 -0.023249537 0.0032142675
-0.0050840061 -0.026698181 0.0050819837
0.0051423344 -0.026685119 0.0050027627
0.011308022 -0.023139436 0.0031930648
-0.013201031 -0.014989022 0.0050737546
-0.0094161732 -0.019362729 0.0094382903
0.0093684234 -0.019350486 0.0094989417
0.013111061 -0.015008054 0.0053839306
-0.013588739 -0.0051075006 0.0054095397
0.013631493 -0.0049698502 0.0053402958
-0.013582229 0.0048252773 0.0054154121
0.013736497 0.0049904548 0.0050226464
-0.013211004 0.014972214 0.0051132543
-0.0095714321 0.018983999 0.0094968034
0.0094379885 0.019148622 0.0095434273
0.01325716 0.014756238 0.0050046588
-0.01122262 0.023359625 0.0031645563
-0.0052909921 0.026642075 0.0052718297
0.0053339479 0.026628442 0.0052127903
0.011314097 0.023052011 0.0032416729
-0.0035679806 0.035443123 0.0036323494
0.0035389978 0.035416704 0.0036813603
-0.0022726788 0.040795967 0.0022440259
0.002074112 0.040820792 0.0023099461
-0.003426607 -0.02310821 0.011245176
0.0030467287 -0.023235511 0.011313831
-0.010499902 -0.012849181 0.010589629
-0.0050843828 -0.01500743 0.013209701
0.0052238498 -0.014870342 0.013169502
0.01055843 -0.01308098 0.010462848
-0.010636271 -0.0049573979 0.010530096
-0.0052053672 -0.0049795224 0.013697627
0.0051656375 -0.0049156793 0.013689388
0.010615866 -0.0046449606 0.010555804
-0.01057817 0.0050739637 0.010590543
-0.0053138123 0.0049907477 0.013645767
0.0052532367 0.0050349864 0.013656958
0.010638493 0.0053795171 0.010528821
-0.010621754 0.012652606 0.010462745
-0.0051213638 0.014968109 0.013220885
0.0050544892 0.015009291 0.013199679
0.010552931 0.013227397 0.010520151
-0.0033956943 0.023316471 0.011175786
0.0030281814 0.023392526 0.011265731
