# .PCD v0.7 - Point Cloud Data file format
VERSION 0.7
FIELDS x y z
SIZE 4 4 4
TYPE F F F
COUNT 1 1 1
WIDTH 1267
HEIGHT 1
VIEWPOINT 0 0 0 1 0 0 0
POINTS 1267
DATA ascii
0.077508681 -0.014683158 -0.10530216
0.082612149 -0.014529626 -0.10528963
0.09983588 -0.018978421 -0.10473035
0.10066935 -0.013786256 -0.10691652
-0.10189848 -0.005493795 -0.10481989
-0.095370032 -0.0014901101 -0.10596295
-0.083933569 -0.0047463998 -0.10534716
-0.0770979 -0.0032249559 -0.10522413
-0.068332724 -0.0048023537 -0.10652356
-0.014112025 -0.0049326788 -0.10499509
-0.009376972 -0.0088827796 -0.10520205
0.0087289 -0.0090683885 -0.10464882
0.013259236 -0.0043552672 -0.10460587
0.06789881 -0.0043265936 -0.10533444
0.078338318 -0.0054738205 -0.1054225
0.083152913 -0.0050705392 -0.10502506
0.094373971 -0.0013601999 -0.10705686
0.10145746 -0.004700671 -0.10471605
-0.10189682 0.0057508084 -0.10438723
-0.095830433 0.0015672873 -0.10657296
-0.083705366 0.0045824829 -0.10491809
-0.076791264 0.0038429059 -0.10448215
-0.068359852 0.0052592386 -0.10467242
-0.014507874 0.0055167959 -0.1046212
-0.0092921574 0.0089891395 -0.10688064
0.0089330114 0.0088124452 -0.10377005
0.013618758 0.0046065338 -0.10529909
0.067802839 0.0053588958 -0.10482039
0.078445941 0.0060308436 -0.10516253
0.083800718 0.0047002034 -0.10533167
0.093787715 0.0011214737 -0.10663682
0.10140827 0.005320786 -0.10431139
-0.10092979 0.015493125 -0.1054591
-0.082542464 0.014344197 -0.10450522
-0.076801158 0.015122095 -0.10492878
-0.067370072 0.014559578 -0.10602758
-0.011693995 0.012408616 -0.10474987
-0.0041102958 0.014396658 -0.10565683
0.0044753463 0.014195875 -0.10571249
0.01191228 0.011601518 -0.1030599
0.066488989 0.014279992 -0.10523356
0.077142335 0.015891453 -0.10508533
0.082761168 0.015074077 -0.10525896
0.10074612 0.013226539 -0.10587066
-0.10001766 0.020629678 -0.1047343
-0.098551042 0.026533647 -0.10519947
-0.082096711 0.023587137 -0.10489573
-0.075774938 0.025235979 -0.1047684
-0.064443111 0.024474012 -0.10495013
0.063501462 0.024458421 -0.10398497
0.075886488 0.025035836 -0.10475963
0.082972981 0.025761632 -0.10706096
0.098666541 0.024231654 -0.10602628
-0.095788412 0.035151441 -0.10498042
-0.081532173 0.034037046 -0.1080753
-0.07380227 0.034688324 -0.10491581
-0.066421226 0.036011118 -0.10498068
-0.058248844 0.036124401 -0.1069777
0.057558075 0.036460347 -0.10350166
0.065549828 0.03562177 -0.10446807
0.074152522 0.034434054 -0.10428175
0.081179805 0.033819802 -0.10841103
0.095730849 0.034087084 -0.10429381
-0.091668613 0.044683684 -0.10431156
-0.089656845 0.049029566 -0.10516873
-0.073749274 0.043075524 -0.10531002
-0.066177182 0.045137998 -0.1039503
-0.053119998 0.043249942 -0.10592254
-0.049060278 0.047888611 -0.10567178
0.048033357 0.048357666 -0.10390369
0.054610763 0.043487966 -0.10702796
0.06553489 0.045874748 -0.10427418
0.07269641 0.043425899 -0.10526288
0.089732334 0.047724985 -0.10105713
0.090964653 0.045124374 -0.10390405
-0.085435972 0.055709749 -0.10564402
-0.071055382 0.052337863 -0.10778478
-0.063333735 0.054481953 -0.10491657
-0.056997042 0.056138974 -0.10471752
-0.042913318 0.053343363 -0.10556398
-0.036229014 0.057961382 -0.10487703
0.035824358 0.057903823 -0.10509455
0.044051174 0.053368855 -0.10528726
0.056802511 0.056023668 -0.10399055
0.06424813 0.054033656 -0.10595772
0.071214534 0.051067963 -0.10752648
0.085270107 0.055270113 -0.10612315
-0.081045076 0.061748732 -0.10483517
-0.077378549 0.066374727 -0.10423849
-0.06261798 0.062488783 -0.10744555
-0.05442005 0.064172119 -0.10499161
-0.04619417 0.065361686 -0.10471894
-0.036042139 0.06670408 -0.10464182
-0.024299851 0.063874044 -0.10601193
-0.014692115 0.066782497 -0.10548453
-0.0066130254 0.067930058 -0.10547256
0.0063842959 0.067913026 -0.10546273
0.015164183 0.06656231 -0.10563047
0.02437675 0.063709781 -0.10449336
0.036623485 0.068185985 -0.10511
0.045948189 0.066342078 -0.10446712
0.053555947 0.063361935 -0.1053455
0.06212458 0.061796229 -0.10743567
0.076866098 0.066428877 -0.10413539
0.080783725 0.061385397 -0.10498074
-0.072611131 0.071496226 -0.10436789
-0.065738752 0.078006908 -0.10543371
-0.051475242 0.07181371 -0.10774905
-0.043583281 0.073581703 -0.10541361
-0.034489688 0.074103765 -0.10381486
-0.025160225 0.076198392 -0.10486492
-0.015561317 0.077876493 -0.10449161
-0.0044991774 0.078874618 -0.10609473
0.0052077873 0.078539118 -0.10496063
0.014963259 0.077275254 -0.10531077
0.025500158 0.076177724 -0.10460628
0.035452336 0.073871635 -0.1040929
0.043434039 0.073254131 -0.10519994
0.051350575 0.071521543 -0.10734587
0.065931983 0.077405594 -0.1056847
0.072101854 0.071530297 -0.10624641
-0.061956041 0.081045873 -0.10587823
-0.053744305 0.08635594 -0.10498917
-0.048350878 0.083728865 -0.10612888
-0.032862648 0.081543945 -0.10806355
-0.024313837 0.083650321 -0.10736292
-0.015214146 0.083513126 -0.10586073
-0.0051036789 0.083267428 -0.10486352
0.0048869695 0.082690172 -0.10481817
0.014828421 0.083171129 -0.1046261
0.024471648 0.082536072 -0.10595564
0.033527642 0.081636235 -0.10787856
0.046911001 0.082369052 -0.10678428
0.054566104 0.085838541 -0.10416321
0.061271884 0.081153981 -0.10677655
-0.043683171 0.092028588 -0.10455839
-0.034220029 0.096008323 -0.10367327
-0.024399759 0.098937891 -0.10369553
-0.019811751 0.099972434 -0.10698507
0.019627938 0.099955991 -0.10017
0.023815446 0.09887702 -0.10480208
0.034939043 0.095476702 -0.10478456
0.043438241 0.09187188 -0.10593299
-0.015274324 0.10078175 -0.10445433
-0.0042942781 0.10175698 -0.10597552
0.0046846475 0.10170721 -0.10632144
0.015238158 0.10069113 -0.10586924
-0.014861827 -0.10076054 -0.094098523
-0.0057423864 -0.10173477 -0.093590632
0.0049623591 -0.10176272 -0.094687335
0.014170454 -0.10077562 -0.095344923
-0.043971736 -0.091780446 -0.094684705
-0.034449819 -0.095858514 -0.095495492
-0.024440039 -0.098770954 -0.095572844
0.019404592 -0.099983126 -0.099942364
0.024494706 -0.098732412 -0.095064603
0.034442861 -0.095736481 -0.094597839
0.043226935 -0.091960289 -0.095150776
-0.061113045 -0.081632674 -0.098566622
-0.054595146 -0.086093612 -0.09489423
-0.048848499 -0.089561462 -0.094990574
-0.022299776 -0.081208892 -0.094939977
-0.015264074 -0.082031772 -0.094033293
-0.0055008749 -0.082965657 -0.093585692
0.003405629 -0.083198257 -0.093167387
0.015199104 -0.081936039 -0.093755051
0.022448093 -0.080852002 -0.096101694
0.048929963 -0.089263499 -0.094885476
0.05458045 -0.085768156 -0.095462434
0.061433874 -0.081056178 -0.094946906
-0.071691737 -0.072353289 -0.093851104
-0.067070477 -0.076868512 -0.094398104
-0.042795908 -0.071943797 -0.09432441
-0.033968631 -0.073443376 -0.093495749
-0.025224645 -0.076517358 -0.093152016
-0.014767484 -0.075496629 -0.094189838
-0.0039265519 -0.077111185 -0.094818287
0.0048374292 -0.07667049 -0.094805524
0.015267782 -0.07642819 -0.094737247
0.025627533 -0.075750552 -0.093681127
0.034314498 -0.074445479 -0.093388468
0.04193401 -0.072252274 -0.095308319
0.066590108 -0.076829843 -0.095351681
0.071391828 -0.0721692 -0.097002387
-0.081182815 -0.061823521 -0.093417972
-0.077539943 -0.066327654 -0.095322885
-0.053841513 -0.063099295 -0.093452439
-0.045714531 -0.06588763 -0.09438891
-0.036215007 -0.066088311 -0.095567398
-0.025025111 -0.062515646 -0.09480913
-0.015561084 -0.064407781 -0.094591737
-0.0052385856 -0.065618798 -0.094270959
0.0053613209 -0.065795921 -0.09419173
0.014940144 -0.065372169 -0.095107235
0.024983695 -0.06263335 -0.094401307
0.03659568 -0.067827716 -0.094557747
0.045725785 -0.064632684 -0.093024194
0.054243919 -0.062920436 -0.094010755
0.076512545 -0.066950634 -0.096165143
0.080444321 -0.062128201 -0.090097159
-0.08647427 -0.054135799 -0.095315263
-0.063284598 -0.054465204 -0.094279513
-0.055686552 -0.055664252 -0.094069436
-0.043127649 -0.052882396 -0.09526597
-0.034723159 -0.056591909 -0.093362644
-0.024526207 -0.054585643 -0.094264075
-0.014416224 -0.054673113 -0.094618805
-0.0057734526 -0.055386104 -0.094618805
0.0049817474 -0.055271395 -0.094618805
0.015413063 -0.05521708 -0.094618805
0.025702573 -0.055920608 -0.093748614
0.034610428 -0.055036373 -0.093694717
0.043489378 -0.051759817 -0.094364718
0.056076866 -0.056300431 -0.093967721
0.062075716 -0.054915208 -0.094206549
0.085975476 -0.053330094 -0.096061952
-0.091638476 -0.044718724 -0.096251555
-0.089596353 -0.049093723 -0.096373267
-0.071789436 -0.0431487 -0.094845206
-0.065675326 -0.046126507 -0.093872651
-0.052595813 -0.042546868 -0.095426671
-0.046606977 -0.045758802 -0.093855299
-0.03500963 -0.044558108 -0.094618805
-0.024578428 -0.045010418 -0.094618805
-0.016969576 -0.044835582 -0.094618805
-0.0043100063 -0.044930063 -0.093740635
0.004389117 -0.0442646 -0.094131537
0.015047916 -0.044944949 -0.094618805
0.024726901 -0.045008995 -0.094618805
0.035277557 -0.045866527 -0.094618805
0.045839541 -0.04631006 -0.093781687
0.051704679 -0.042913914 -0.095336914
0.06494692 -0.045228146 -0.094098687
0.074354477 -0.044060025 -0.096624412
0.085911237 -0.048123326 -0.096759714
0.091952093 -0.042831492 -0.093823001
-0.095760137 -0.035241291 -0.094797581
-0.073854282 -0.034616802 -0.092826746
-0.068749852 -0.036751654 -0.094864063
-0.056102283 -0.035367284 -0.093664005
-0.0445402 -0.033791475 -0.094618805
-0.034861811 -0.035294469 -0.094618805
-0.02424841 -0.034742501 -0.09463755
-0.015170124 -0.033179425 -0.094718806
-0.0058425446 -0.035572853 -0.094704524
0.0053379 -0.034320146 -0.094718814
0.01562858 -0.035192244 -0.094675951
0.024895148 -0.033706509 -0.094657265
0.034713477 -0.034763396 -0.094618805
0.04479073 -0.03553221 -0.094618805
0.055803642 -0.035279516 -0.094396561
0.067649193 -0.035980575 -0.095639557
0.073942922 -0.034102514 -0.093961619
0.095367007 -0.035069529 -0.09599895
-0.098739676 -0.025582237 -0.093637325
-0.080790922 -0.023694672 -0.093715951
-0.076018266 -0.025224583 -0.093701601
-0.063174121 -0.023580601 -0.09378498
-0.055906694 -0.025074139 -0.094329894
-0.043064058 -0.025132718 -0.094618805
-0.034935102 -0.025036227 -0.094626501
-0.024825415 -0.024675569 -0.094712831
-0.013578722 -0.024737474 -0.094718814
-0.0045310836 -0.023477115 -0.094429068
0.0051992573 -0.024528256 -0.094296396
0.014058501 -0.025019215 -0.094718806
0.024403734 -0.025233889 -0.094706312
0.034922786 -0.025783855 -0.09463881
0.044763312 -0.025032399 -0.094618812
0.056271106 -0.025273599 -0.093847409
0.062445227 -0.024757009 -0.094228327
0.07559593 -0.025052933 -0.094128147
0.080904037 -0.022858603 -0.095266528
0.098514445 -0.02460162 -0.096375309
-0.10091557 -0.015184666 -0.09367846
-0.082448408 -0.014026815 -0.093879655
-0.076862723 -0.014914074 -0.094713464
-0.064778239 -0.014647887 -0.093502089
-0.055435937 -0.014922255 -0.094618805
-0.046338536 -0.015845682 -0.094618805
-0.035537023 -0.015464767 -0.094680347
-0.024526559 -0.014354846 -0.094718806
-0.01504047 -0.01436851 -0.094249092
-0.0047066049 -0.015605353 -0.094621062
0.0046038218 -0.013835974 -0.094581328
0.014616734 -0.014924956 -0.094239943
0.025434224 -0.01444853 -0.094718814
0.036285128 -0.015234888 -0.094668806
0.045426674 -0.014801468 -0.094618805
0.055893671 -0.015634809 -0.094618805
0.064277545 -0.014412839 -0.093835652
0.076784417 -0.015537614 -0.093567275
0.081989564 -0.014954666 -0.09490443
0.099736452 -0.019453326 -0.097161494
0.10052668 -0.014695088 -0.094954625
-0.10181738 -0.0062485263 -0.095671721
-0.083201841 -0.0053207944 -0.093460344
-0.078347333 -0.0047006006 -0.094447374
-0.065952875 -0.003775174 -0.093358487
-0.054502763 -0.004996446 -0.094618805
-0.045899834 -0.0052527902 -0.094618805
-0.034197856 -0.0065005668 -0.094713256
-0.025120322 -0.0047271969 -0.094276898
-0.014220355 -0.0047435085 -0.094782896
-0.0090425247 -0.0093021644 -0.094867505
0.0092264172 -0.0084445197 -0.096889421
0.01360197 -0.0052343816 -0.094887838
0.023624308 -0.005068847 -0.094035283
0.034636404 -0.0039748084 -0.094714262
0.04472902 -0.0057061347 -0.094618805
0.05629877 -0.0054328451 -0.094618805
0.06521403 -0.0050942092 -0.094008289
0.07774061 -0.0048216395 -0.094692655
0.082907721 -0.0041848659 -0.093485884
0.10147993 -0.0041230763 -0.09545172
-0.10201287 0.0035337217 -0.09398184
-0.082913145 0.0049942401 -0.093393423
-0.078175984 0.0057205302 -0.094708435
-0.065999351 0.0049768812 -0.093370385
-0.055580694 0.0057447637 -0.094618805
-0.044485737 0.0042953636 -0.094618805
-0.035382755 0.0059211398 -0.094708815
-0.024310023 0.005042199 -0.094022483
-0.014450853 0.0055472311 -0.094706051
-0.0093529923 0.0089128539 -0.094670646
0.0083537381 0.0095388331 -0.096549973
0.014178508 0.0042900606 -0.095206097
0.023160802 0.0049734716 -0.093896896
0.034848548 0.0042187725 -0.094695732
0.046090469 0.0060554859 -0.094618805
0.055196419 0.0048068748 -0.094618805
0.065926105 0.0056546293 -0.094486326
0.077727154 0.0050942847 -0.094369926
0.082717575 0.0053356187 -0.093237109
0.10140582 0.0048950375 -0.094051138
-0.10091968 0.015487641 -0.095296979
-0.081946507 0.014705898 -0.094066843
-0.077460118 0.014854231 -0.093115792
-0.065244101 0.013959649 -0.094231412
-0.05591109 0.013752606 -0.094618805
-0.045085005 0.015186259 -0.094618805
-0.034717824 0.015012823 -0.094681308
-0.02457034 0.015903775 -0.094718806
-0.014823599 0.015611694 -0.09355101
-0.005234343 0.013951888 -0.095255263
0.0048155799 0.014780608 -0.094645165
0.014577587 0.015111834 -0.093605481
0.025088575 0.015548195 -0.094718814
0.034736417 0.013618181 -0.094690241
0.044397127 0.016168794 -0.094618805
0.053555712 0.013731702 -0.094618805
0.064703092 0.015271635 -0.094282188
0.076863594 0.014605588 -0.093654312
0.08189401 0.015128716 -0.094252571
0.099824309 0.019024886 -0.09869042
0.10058752 0.014224586 -0.094225138
-0.10010634 0.020227283 -0.09244816
-0.098749712 0.02566739 -0.097636886
-0.081168137 0.022537697 -0.094570205
-0.075780831 0.025790062 -0.094209932
-0.063055933 0.025175497 -0.094485037
-0.056099437 0.025720669 -0.093980089
-0.045530889 0.025121279 -0.094618805
-0.03480126 0.026508544 -0.094623804
-0.024208795 0.024555966 -0.094713256
-0.015695591 0.025923748 -0.094718806
-0.0056694099 0.02447838 -0.094243519
0.0045560016 0.024799954 -0.094196796
0.015524194 0.026006587 -0.094718814
0.023930712 0.026154727 -0.094710477
0.036410626 0.025935652 -0.094618805
0.04704446 0.026402181 -0.094618805
0.056519393 0.025109468 -0.094095722
0.062069979 0.025478985 -0.094976529
0.075605743 0.025579724 -0.094018914
0.080656871 0.023422003 -0.094422519
0.098368332 0.025069451 -0.095306277
-0.095895372 0.035059121 -0.094071582
-0.074443005 0.034192216 -0.093201846
-0.067034185 0.036574468 -0.094471447
-0.055834949 0.035775807 -0.094096385
-0.045010142 0.032957844 -0.094618812
-0.034590017 0.03481308 -0.094618805
-0.025472024 0.033999898 -0.094639853
-0.015746377 0.034769721 -0.094687223
-0.0051882248 0.035031926 -0.094713546
0.0043203598 0.035752185 -0.094708815
0.012916821 0.035778936 -0.094668806
0.023812527 0.035763826 -0.094635993
0.036033925 0.034941081 -0.094618805
0.043633725 0.035162214 -0.094618805
0.055931859 0.035059664 -0.094268769
0.068144962 0.036990251 -0.094056711
0.073715426 0.034404527 -0.094279744
0.095441043 0.034782961 -0.095621675
-0.091967963 0.044130631 -0.094892122
-0.085771561 0.048562508 -0.092469789
-0.073844321 0.044525489 -0.092646219
-0.06518878 0.045824859 -0.094149373
-0.053151023 0.042477131 -0.09463039
-0.046227086 0.046492416 -0.09450043
-0.034889016 0.046109468 -0.094618805
-0.025192121 0.044714492 -0.094618805
-0.014938816 0.0435762 -0.094618805
-0.0041586473 0.045478951 -0.09385626
0.0035980351 0.044963345 -0.093862049
0.016097292 0.044650268 -0.094618805
0.02618576 0.045086209 -0.094618805
0.03520523 0.045773242 -0.094618805
0.046253458 0.046042141 -0.094246574
0.052419156 0.042188432 -0.093218088
0.065287091 0.046041843 -0.093201041
0.07274963 0.043581516 -0.093765043
0.085038982 0.04721465 -0.09298528
0.0917667 0.043480251 -0.096403979
-0.085999228 0.05443801 -0.095515117
-0.063049711 0.053612214 -0.093630277
-0.056169331 0.055656981 -0.094304442
-0.044096068 0.051999282 -0.09498623
-0.035381712 0.055813815 -0.09385775
-0.025007928 0.054383889 -0.094160222
-0.014127013 0.056049921 -0.094618805
-0.0034329426 0.055486966 -0.094618805
0.0045529106 0.054371733 -0.094618805
0.014533588 0.055049729 -0.094618805
0.024798086 0.05525076 -0.094218805
0.034938119 0.055308871 -0.094560012
0.04493152 0.053387407 -0.095317818
0.055589352 0.055879265 -0.094367728
0.063104212 0.054137506 -0.09420196
0.085491545 0.054562874 -0.095130652
-0.080836043 0.062031221 -0.095458731
-0.077300772 0.066578709 -0.095600486
-0.053182539 0.063883357 -0.093853347
-0.046306182 0.06524352 -0.094025351
-0.037013531 0.067629077 -0.09506572
-0.023474347 0.062990762 -0.094080761
-0.01570037 0.065275945 -0.094119072
-0.0049628117 0.066758201 -0.094366364
0.0049659885 0.066093653 -0.094446629
0.015190384 0.065196306 -0.094509676
0.024355976 0.062222999 -0.094101958
0.036425624 0.067594349 -0.09565562
0.045854449 0.065292843 -0.093803197
0.054010201 0.063355692 -0.094078019
0.076858647 0.066373803 -0.095169097
0.080644168 0.061588068 -0.094964765
-0.072499171 0.071554884 -0.095032677
-0.067116275 0.076815002 -0.095579691
-0.0424213 0.07208211 -0.094015084
-0.034040593 0.073556468 -0.093316592
-0.025573228 0.075516604 -0.093629524
-0.014400191 0.077114142 -0.094006322
-0.0054284041 0.078011982 -0.095070355
0.0044048969 0.078122556 -0.094714738
0.015298728 0.076811954 -0.094779797
0.025253188 0.075684369 -0.093256302
0.033809908 0.073771417 -0.093648225
0.04325261 0.071669914 -0.093713686
0.066010378 0.077346265 -0.094217949
0.072256081 0.07129322 -0.094427481
-0.061222244 0.081543222 -0.093515001
-0.05487477 0.085932732 -0.095849469
-0.049725115 0.089151278 -0.09544757
-0.023276737 0.080790557 -0.095906287
-0.015082004 0.081995822 -0.09374436
-0.0056102634 0.082502909 -0.093339942
0.0045873602 0.082998209 -0.093593113
0.015547547 0.081828669 -0.092756838
0.022794466 0.081109904 -0.09424381
0.048942313 0.089276671 -0.09524148
0.055022173 0.085492261 -0.094522275
0.061484981 0.080977656 -0.094359495
-0.045042042 0.091344468 -0.094589688
-0.036126729 0.095291041 -0.094666429
-0.025218587 0.098663993 -0.094010562
0.024862541 0.098495126 -0.094362706
0.034083616 0.095853105 -0.095501952
0.044192981 0.091458179 -0.096701108
-0.015594018 0.10069563 -0.094327532
-0.0059531447 0.10161772 -0.096247375
0.005896145 0.10159887 -0.095616199
0.014593991 0.10071843 -0.095566034
-0.015329698 -0.1007376 -0.084406763
-0.0062646451 -0.10158884 -0.085366592
0.0056200637 -0.10145231 -0.085401915
0.01473641 -0.10071729 -0.086122274
-0.044144288 -0.091661483 -0.084255502
-0.036258142 -0.095130831 -0.084432721
-0.024446113 -0.098712742 -0.085042939
-0.0028225787 -0.09529075 -0.084189706
0.0027685016 -0.096537702 -0.083668403
0.024693636 -0.098597698 -0.085132845
0.034587387 -0.095635831 -0.085309975
0.04204933 -0.092445455 -0.084342241
-0.062320184 -0.080692641 -0.085988998
-0.055009358 -0.085772201 -0.085989349
-0.049368627 -0.089295819 -0.088089436
-0.032500859 -0.082172714 -0.08421623
-0.025409201 -0.083838545 -0.084631406
-0.015456741 -0.086243577 -0.086077437
-0.0048216572 -0.08657562 -0.086625867
0.0041189906 -0.08609242 -0.087424666
0.015479282 -0.085676238 -0.086783677
0.023696037 -0.084308676 -0.085907765
0.033643462 -0.081626326 -0.083824255
0.048584998 -0.089396901 -0.084187448
0.055905379 -0.084806293 -0.084085129
0.061083175 -0.081190027 -0.083992362
-0.071897574 -0.072097652 -0.084076226
-0.066082761 -0.077791177 -0.086076178
-0.051511526 -0.07138627 -0.084584795
-0.044412117 -0.07527262 -0.085977294
-0.03503548 -0.074448474 -0.087504193
-0.02423849 -0.075350717 -0.085244685
-0.014372129 -0.075601511 -0.085469641
-0.0037965146 -0.076514117 -0.084561884
0.0048157559 -0.076278321 -0.085153267
0.014602912 -0.077092297 -0.085918427
0.025327981 -0.075577684 -0.086596109
0.032911487 -0.072824232 -0.086285576
0.044755675 -0.075302966 -0.084428482
0.050694205 -0.072032407 -0.08600153
0.067370504 -0.076024324 -0.08613953
0.071675524 -0.07182163 -0.084465615
-0.081302173 -0.061555121 -0.08565142
-0.076923952 -0.066998415 -0.086753055
-0.062407844 -0.062513426 -0.085292585
-0.054099739 -0.06439025 -0.087405652
-0.045284726 -0.065097913 -0.08521834
-0.034515668 -0.065083578 -0.086135939
-0.024101596 -0.062612273 -0.085904643
-0.014284811 -0.064584389 -0.086036727
-0.0044304454 -0.066271566 -0.086076111
0.0051960163 -0.064809166 -0.085322924
0.015116331 -0.064431712 -0.086396657
0.025579689 -0.061858367 -0.08579877
0.036066223 -0.066665702 -0.08495567
0.045651011 -0.065600894 -0.085888505
0.054980699 -0.06508293 -0.087297432
0.062178422 -0.062125094 -0.085950099
0.07711798 -0.06620723 -0.085610539
0.080699347 -0.061706621 -0.086202644
-0.085973196 -0.054809488 -0.084361717
-0.07112579 -0.052504364 -0.085587062
-0.065699138 -0.055117834 -0.086340353
-0.056274809 -0.055698078 -0.084881283
-0.043687634 -0.052043818 -0.086018786
-0.03457408 -0.055876903 -0.085959114
-0.024703965 -0.055173993 -0.084947549
-0.014831178 -0.054508261 -0.084134683
-0.005006202 -0.055492133 -0.084194653
0.0052752555 -0.055786937 -0.084074199
0.014440086 -0.054665152 -0.084773332
0.024793042 -0.055819921 -0.085336275
0.035002667 -0.055226214 -0.086079799
0.043454509 -0.052048326 -0.086255141
0.055163119 -0.05631543 -0.085863344
0.064668402 -0.054684538 -0.087565191
0.071089089 -0.051942144 -0.086553343
0.08462517 -0.056013718 -0.0840839
-0.091977522 -0.043866549 -0.086483866
-0.073909894 -0.045224443 -0.086950094
-0.064765051 -0.046421185 -0.085762993
-0.052633189 -0.042768426 -0.086547516
-0.045694489 -0.045750096 -0.085656986
-0.034415562 -0.045435298 -0.084786549
-0.025666414 -0.044088479 -0.08442615
-0.014916387 -0.04482558 -0.084745973
-0.004302308 -0.046478964 -0.084773302
0.0045374949 -0.045620568 -0.085187621
0.014918733 -0.045693766 -0.08419884
0.024331821 -0.045596998 -0.084681593
0.034799334 -0.045558143 -0.084816627
0.044874746 -0.045425698 -0.086387128
0.051678695 -0.043210816 -0.086511664
0.064799242 -0.04552998 -0.085453495
0.074343294 -0.044102933 -0.086239785
0.089022003 -0.048888288 -0.085098229
0.091428436 -0.043803155 -0.084934965
-0.095452048 -0.036047466 -0.08555761
-0.08134459 -0.033873193 -0.085978888
-0.07462249 -0.035432413 -0.087410323
-0.06398084 -0.03354653 -0.085876398
-0.055204477 -0.034583099 -0.085962676
-0.04572925 -0.034709372 -0.0847468
-0.034998428 -0.035636552 -0.084536999
-0.026026625 -0.03582488 -0.08415617
-0.014778184 -0.036436077 -0.085280336
-0.005758673 -0.035162944 -0.085218795
0.0030229394 -0.034844059 -0.085218795
0.01573587 -0.035907283 -0.085264258
0.026663676 -0.035968058 -0.084538989
0.035055824 -0.035376407 -0.084118962
0.045451168 -0.035025887 -0.084665678
0.055116195 -0.036001727 -0.086522758
0.065789759 -0.035542808 -0.085019417
0.074146077 -0.03580305 -0.086753242
0.081240863 -0.03327173 -0.084958285
0.095780857 -0.033767402 -0.085168779
-0.10006665 -0.020314619 -0.082673006
-0.098991305 -0.024406096 -0.085079595
-0.084297583 -0.02542378 -0.085941926
-0.075622126 -0.026019793 -0.086229436
-0.062799178 -0.025087837 -0.086555533
-0.054715354 -0.025284208 -0.084970012
-0.044264883 -0.024618929 -0.084122449
-0.0365794 -0.025613943 -0.084771805
-0.025428114 -0.025333747 -0.085225947
-0.013951025 -0.025664566 -0.085218795
-0.0048066694 -0.024473773 -0.085966229
0.0049709338 -0.024959294 -0.085848145
0.015521753 -0.0250871 -0.085218795
0.025929322 -0.023948716 -0.085218802
0.035828725 -0.025621086 -0.084444553
0.044375915 -0.024078332 -0.084316149
0.055192836 -0.025299303 -0.085315861
0.062321711 -0.025878325 -0.08582104
0.075145535 -0.024929237 -0.085643202
0.083244488 -0.024875136 -0.086485177
0.098290943 -0.025134549 -0.085147873
-0.10100065 -0.014225917 -0.084024392
-0.085642882 -0.015248446 -0.08659073
-0.07761424 -0.015173421 -0.085018866
-0.064229868 -0.014499272 -0.086394593
-0.055280138 -0.014724623 -0.084622137
-0.045755982 -0.014023234 -0.084382877
-0.035218969 -0.01548141 -0.085247375
-0.025098894 -0.015572234 -0.085218795
-0.014929756 -0.014259712 -0.086135544
-0.0054663825 -0.013917431 -0.084383681
0.0051931026 -0.01465753 -0.084779344
0.014708958 -0.014808079 -0.085873954
0.025469426 -0.014753698 -0.085218795
0.034853492 -0.015350668 -0.085254513
0.046629973 -0.016038194 -0.084263213
0.054741684 -0.015549487 -0.084768817
0.063691996 -0.014841666 -0.085602023
0.077569939 -0.014938644 -0.086547546
0.085383713 -0.01445168 -0.086509816
0.099775553 -0.019360796 -0.083862603
0.10054114 -0.014494817 -0.086056091
-0.1018767 -0.0048326929 -0.084832288
-0.086445108 -0.0065304716 -0.086031601
-0.07861951 -0.0061803367 -0.084356718
-0.064815357 -0.0047087069 -0.085823782
-0.055202868 -0.0048910668 -0.084673978
-0.045540765 -0.0047742436 -0.084730119
-0.035619237 -0.004708068 -0.085227132
-0.023973953 -0.0048888633 -0.085793652
-0.014833221 -0.0044654035 -0.084414691
-0.0099355914 -0.0081822881 -0.080010466
0.0089992117 -0.0087294262 -0.082728162
0.014061455 -0.0051220707 -0.085508622
0.023912698 -0.0051295836 -0.086288907
0.035743538 -0.0039962619 -0.085241266
0.046305884 -0.0045595057 -0.084517434
0.0547975 -0.0046628979 -0.08498548
0.065347008 -0.005365246 -0.085897446
0.078552879 -0.0051208679 -0.084985495
0.085283048 -0.0052826824 -0.087198049
0.10133781 -0.0053462093 -0.08459226
-0.10178546 0.0059288973 -0.08392483
-0.085877851 0.0053135571 -0.087294146
-0.078902304 0.0058960426 -0.083767049
-0.065337919 0.0055579529 -0.085617296
-0.055539072 0.0044864416 -0.084065303
-0.045591973 0.0052591441 -0.084330812
-0.036294416 0.0055517647 -0.085218795
-0.024966445 0.0039390912 -0.08568339
-0.014063415 0.0047993343 -0.084762767
-0.0090202363 0.0093301181 -0.086212263
0.0095785474 0.0080029676 -0.08448571
0.01391294 0.0052507105 -0.085254878
0.024020737 0.0042704144 -0.085602045
0.034537517 0.0051157661 -0.085218802
0.046291444 0.0049187276 -0.084478073
0.055629585 0.0046006963 -0.084782213
0.065823898 0.0047924207 -0.086386897
0.078548968 0.0058193672 -0.085111596
0.086790748 0.005164274 -0.085789539
0.10128099 0.0060230303 -0.084761478
-0.10098451 0.014359414 -0.085615546
-0.085618429 0.015051144 -0.085507035
-0.078301571 0.014881544 -0.085262254
-0.064316191 0.014959221 -0.086490914
-0.054993004 0.013206867 -0.084234029
-0.046612103 0.014408956 -0.08454103
-0.03487391 0.013803422 -0.085238799
-0.025513871 0.013601636 -0.085218795
-0.014823875 0.014371078 -0.086040862
-0.0055521228 0.015211274 -0.085795984
0.0047012693 0.013482431 -0.084734112
0.014505315 0.014601184 -0.085791327
0.025435537 0.014577481 -0.085218824
0.034685805 0.015693121 -0.085252136
0.045837548 0.015466321 -0.083862558
0.055295654 0.015453336 -0.084438793
0.06455715 0.01440289 -0.08611156
0.077689841 0.015012279 -0.086337127
0.085001215 0.015154506 -0.08620552
0.099815458 0.019084442 -0.085951939
0.10060447 0.013697529 -0.086357631
-0.10010308 0.020233486 -0.086662039
-0.098562501 0.026013721 -0.086019605
-0.083447352 0.024691207 -0.087272696
-0.075843841 0.025137242 -0.086320005
-0.063353091 0.024621285 -0.086117864
-0.055268873 0.024971766 -0.085106984
-0.044268563 0.024839001 -0.084369533
-0.034884207 0.025818646 -0.085126556
-0.025920659 0.025039213 -0.085232131
-0.014907129 0.025466409 -0.085218795
-0.0048510185 0.024335498 -0.085626788
0.0034555423 0.023517929 -0.085735485
0.013961772 0.02526344 -0.085218795
0.024427012 0.024898103 -0.085225046
0.036203306 0.024988782 -0.084307805
0.044637226 0.025337618 -0.084737942
0.056475282 0.024979485 -0.084956244
0.062366884 0.024007397 -0.086389266
0.075674094 0.025533369 -0.085876793
0.083102271 0.024894822 -0.087453566
0.097984366 0.026247095 -0.083519094
-0.095689729 0.035435528 -0.085097812
-0.081206694 0.033913847 -0.086505987
-0.074611686 0.036034256 -0.086588696
-0.065093175 0.035621375 -0.085085578
-0.055477902 0.035229173 -0.085979529
-0.044381611 0.034802508 -0.084781595
-0.035408583 0.03543869 -0.08406917
-0.025994437 0.035419054 -0.08480075
-0.014923228 0.034559321 -0.085234702
-0.003886441 0.033444915 -0.085218795
0.0035983627 0.034312692 -0.085218795
0.01609855 0.034265734 -0.085242607
0.026034582 0.036258645 -0.084362984
0.034248613 0.035186321 -0.084249556
0.045417476 0.035630476 -0.084631324
0.05534875 0.034722224 -0.086078204
0.066418111 0.034671083 -0.084468015
0.073831499 0.034828126 -0.087233588
0.081461921 0.033078767 -0.084764995
0.095327996 0.035109825 -0.083518013
-0.09231206 0.043299366 -0.085114092
-0.085267231 0.046429832 -0.086992517
-0.076317765 0.04443907 -0.086218357
-0.065408781 0.045200933 -0.084868304
-0.05243244 0.043309338 -0.086161703
-0.046782006 0.046038434 -0.085975774
-0.034531377 0.045377765 -0.084344409
-0.024949178 0.045299828 -0.083746158
-0.015620716 0.045861468 -0.084884495
-0.0040343795 0.045812763 -0.084750503
0.0043865298 0.045901064 -0.084856801
0.015225201 0.046014208 -0.084719419
0.024352387 0.043903373 -0.084268652
0.034496449 0.04467399 -0.084144123
0.045661595 0.045486275 -0.085994035
0.051865775 0.04402091 -0.086597718
0.065096505 0.0447542 -0.085707217
0.075505637 0.045211714 -0.086156316
0.084170118 0.047566935 -0.084996365
0.091663763 0.043675043 -0.084670685
-0.085186571 0.054718848 -0.085727423
-0.07157512 0.052208316 -0.085868709
-0.065247156 0.056421768 -0.08598306
-0.056181151 0.05618507 -0.084793113
-0.042640198 0.053021234 -0.087137759
-0.035262797 0.055093069 -0.086102054
-0.024269981 0.056172188 -0.085091777
-0.015266102 0.055457197 -0.084658809
-0.0051277932 0.055233743 -0.084783666
0.0053841788 0.054558601 -0.084915474
0.015432441 0.0541053 -0.084870666
0.026286837 0.055765782 -0.085383564
0.034799796 0.055277422 -0.085705094
0.042851571 0.052760392 -0.087314047
0.055476476 0.056151092 -0.085675254
0.06566108 0.054677613 -0.086194105
0.072482347 0.051497117 -0.084834024
0.084406883 0.05331514 -0.084509939
-0.081573382 0.061030846 -0.08698535
-0.078011461 0.065721877 -0.08496698
-0.062568873 0.062414568 -0.084769256
-0.055959839 0.065617315 -0.086704642
-0.046053406 0.064753436 -0.085388832
-0.035783712 0.067018181 -0.084552832
-0.024954295 0.062159691 -0.085902922
-0.014190702 0.065028846 -0.086268239
-0.0048877364 0.065515183 -0.08603543
0.0047456878 0.06595879 -0.085919723
0.015467603 0.064513117 -0.08617954
0.024221713 0.062875628 -0.086125836
0.036630634 0.066694371 -0.085068218
0.046047952 0.064490922 -0.08629901
0.054943349 0.065264478 -0.086910471
0.061917398 0.062713303 -0.085764833
0.076671198 0.06671185 -0.085347839
0.081335701 0.060666263 -0.083371229
-0.071811356 0.07218983 -0.085240744
-0.067240253 0.07665167 -0.084661305
-0.052148253 0.071289882 -0.08457692
-0.045089468 0.074720852 -0.087130524
-0.034753278 0.073221326 -0.086982384
-0.025125254 0.075115539 -0.084999494
-0.015498546 0.077457078 -0.085222326
-0.0056641577 0.078568928 -0.085432716
0.0058823214 0.078753702 -0.084817916
0.01448524 0.077433437 -0.085009366
0.025240699 0.075577617 -0.086272106
0.035070166 0.073164538 -0.087210543
0.045364957 0.074518822 -0.085537724
0.051570706 0.071350202 -0.085892387
0.066144228 0.077195428 -0.085893407
0.072074488 0.071423858 -0.084697202
-0.061189428 0.081501372 -0.087365717
-0.055738267 0.085282646 -0.084502034
-0.048818499 0.089528702 -0.085441336
-0.032480843 0.082197472 -0.08537893
-0.025121745 0.084218889 -0.084414519
-0.01461307 0.084940724 -0.086749904
-0.0057631689 0.086022802 -0.087029986
0.0048310515 0.08564803 -0.087379895
0.015984666 0.085612185 -0.08498235
0.024377104 0.083651498 -0.085535116
0.032743845 0.08159399 -0.085653044
0.048616655 0.089380637 -0.086061314
0.054483484 0.085772134 -0.085312866
0.061059475 0.081212707 -0.085153617
-0.044634778 0.091466516 -0.083254769
-0.033923965 0.096070245 -0.08476717
-0.024408853 0.098800622 -0.084284298
0.019755049 0.09986867 -0.084313318
0.024479674 0.098569795 -0.085398473
0.034411043 0.095694117 -0.085245773
0.042832825 0.092039518 -0.084038287
-0.013859996 0.10084675 -0.083683051
-0.0046761394 0.10165857 -0.083263554
0.0069358451 0.1014419 -0.085067861
0.014970915 0.10069385 -0.085354038
-0.014649156 -0.10061443 -0.076183222
-0.0043764357 -0.1013545 -0.074960999
0.0032416792 -0.10146427 -0.073365867
0.013910268 -0.10075208 -0.075218558
-0.043610662 -0.091317162 -0.07357724
-0.034363318 -0.093065441 -0.073950276
-0.024727153 -0.095547169 -0.073461659
-0.01473714 -0.094831511 -0.07273028
-0.0042462265 -0.094804488 -0.072828017
0.0043441281 -0.094089352 -0.072278596
0.015661554 -0.09458112 -0.07267832
0.024441157 -0.094396934 -0.073191136
0.035057984 -0.093722463 -0.074452884
0.04286404 -0.091898955 -0.07502494
-0.061784018 -0.081027694 -0.074824035
-0.054188281 -0.084128976 -0.073842518
-0.045042008 -0.084626101 -0.072490238
-0.034598999 -0.084396414 -0.072716102
-0.025064062 -0.084819667 -0.072935238
-0.015172151 -0.084762022 -0.074194826
-0.0045669177 -0.085223556 -0.074179739
0.0053027794 -0.086284265 -0.073943853
0.014423942 -0.08392448 -0.074058503
0.024756771 -0.08476612 -0.073289461
0.034723308 -0.084783718 -0.071942352
0.045670394 -0.084898628 -0.072908178
0.05410134 -0.083683759 -0.073823579
0.061699569 -0.080644853 -0.073955119
-0.071580149 -0.071888603 -0.074837171
-0.064237751 -0.073724255 -0.073232785
-0.055257626 -0.074899003 -0.072572798
-0.044349555 -0.074637391 -0.073616095
-0.035675876 -0.075282626 -0.074608937
-0.024592374 -0.077473536 -0.075253211
-0.015028073 -0.076965168 -0.075770818
-0.0033300212 -0.077861935 -0.074430615
0.005987633 -0.077516645 -0.074923165
0.013937255 -0.077819929 -0.07522855
0.02548405 -0.076591015 -0.074532382
0.034999657 -0.075084992 -0.074790791
0.044359736 -0.07408461 -0.073660158
0.054851022 -0.075121075 -0.072585158
0.06491112 -0.075119801 -0.074230798
0.07170327 -0.071801215 -0.074538961
-0.080535829 -0.062096 -0.07580778
-0.074751496 -0.064487144 -0.073978744
-0.06483721 -0.064956687 -0.072569758
-0.055177782 -0.065075569 -0.074082904
-0.045868453 -0.066768296 -0.075219907
-0.039022047 -0.069581456 -0.075310826
-0.013859647 -0.06476108 -0.076735862
-0.004506296 -0.061265014 -0.074316017
0.0054447055 -0.06435927 -0.074591391
0.010852228 -0.065381117 -0.075528115
0.038857426 -0.069688767 -0.075935863
0.046125382 -0.066548251 -0.075500652
0.055574998 -0.065315127 -0.073794596
0.064557515 -0.064905398 -0.072716333
0.075701125 -0.064317644 -0.073938623
0.081526645 -0.060479779 -0.075781845
-0.083829135 -0.054482166 -0.074105531
-0.07462097 -0.055264834 -0.071907066
-0.064381562 -0.054583911 -0.074787498
-0.056997638 -0.057164483 -0.074436523
-0.013235926 -0.055065114 -0.075915068
-0.0063654813 -0.0550454 -0.074924499
0.0049649803 -0.056792866 -0.07479991
0.010737945 -0.058512278 -0.074100502
0.056870103 -0.057216994 -0.074013859
0.064837381 -0.055078696 -0.074419834
0.075639196 -0.054897945 -0.072187632
0.083844736 -0.054351546 -0.074668437
-0.091473058 -0.043219399 -0.074720658
-0.084820472 -0.045247033 -0.072699979
-0.074792959 -0.044647582 -0.073165111
-0.066834055 -0.045602828 -0.07478825
-0.022827031 -0.041923553 -0.077550068
-0.014035509 -0.045514319 -0.076793619
-0.0037029437 -0.045943558 -0.076056167
0.0031124637 -0.045985475 -0.075373158
0.016120479 -0.043382708 -0.076234594
0.022192154 -0.041771747 -0.076390535
0.066692233 -0.045519982 -0.075437136
0.074485973 -0.04534819 -0.073166348
0.085328363 -0.045295931 -0.073284589
0.091726758 -0.042654373 -0.07477165
-0.093383886 -0.034328993 -0.074386895
-0.084399149 -0.035160713 -0.072365388
-0.075185396 -0.035260919 -0.074583456
-0.069692321 -0.039646253 -0.076734282
-0.03405115 -0.032917753 -0.077760831
-0.025583746 -0.034781903 -0.074984714
-0.014948551 -0.036137011 -0.073186226
-0.0051154587 -0.038741674 -0.074018531
0.0046581146 -0.038573578 -0.073164865
0.015585648 -0.036425322 -0.074437082
0.024330173 -0.0346817 -0.07507851
0.03393596 -0.032469019 -0.077102028
0.069164075 -0.039248925 -0.072801001
0.075733952 -0.034595884 -0.075064316
0.084422201 -0.034668401 -0.071982659
0.093240328 -0.034847353 -0.073961042
-0.10001504 -0.020380354 -0.078770712
-0.094029196 -0.025243301 -0.072711311
-0.084695965 -0.024907462 -0.073750988
-0.076882094 -0.026017623 -0.074841075
-0.042384163 -0.021902936 -0.077251397
-0.035414591 -0.025083605 -0.075644858
-0.026191276 -0.025327537 -0.071956128
-0.01722228 -0.026243601 -0.071392275
0.017058518 -0.026194075 -0.071929321
0.025448183 -0.024465939 -0.072326995
0.035019774 -0.023658022 -0.075438179
0.042243078 -0.021957019 -0.07748019
0.077198319 -0.025438022 -0.074543834
0.084438294 -0.025084132 -0.073098347
0.094635487 -0.024319123 -0.073161818
-0.10091528 -0.014266138 -0.074285015
-0.094790988 -0.014640754 -0.072485887
-0.085055739 -0.01526631 -0.074254274
-0.078609377 -0.015438157 -0.075366169
-0.042990524 -0.012800728 -0.076249823
-0.034372803 -0.014594724 -0.072595663
-0.025143556 -0.014599579 -0.071912125
-0.012209307 -0.013557454 -0.073694736
-0.004594767 -0.013963097 -0.075306743
0.0042364127 -0.013219388 -0.073799863
0.014771794 -0.013784744 -0.074528076
0.024184654 -0.015477555 -0.071887389
0.033974547 -0.014577746 -0.073182739
0.043928906 -0.014486781 -0.077017978
0.078107499 -0.014659651 -0.074673899
0.084372655 -0.015130205 -0.073839612
0.094988778 -0.015325298 -0.072665863
0.10054155 -0.013847828 -0.074623175
-0.10170617 -0.0044894139 -0.074712917
-0.095555887 -0.0052082781 -0.072329029
-0.085749559 -0.0049952911 -0.073973596
-0.07976228 -0.0044350349 -0.075369477
-0.045738727 -0.0046655638 -0.076049395
-0.035447504 -0.0043680887 -0.07255654
-0.028503537 -0.0042141951 -0.071135946
-0.014161841 -0.0052961013 -0.07524056
-0.0093699628 -0.0088915676 -0.072589606
0.0088513372 -0.0089148581 -0.075500153
0.014040737 -0.0046461066 -0.074966721
0.027433962 -0.0084306141 -0.071872666
0.035332456 -0.0046047978 -0.072431609
0.046009026 -0.0046451883 -0.07682009
0.079369105 -0.0063190567 -0.075337909
0.085260577 -0.005141634 -0.073952384
0.095284931 -0.0048881834 -0.072065704
0.1011704 -0.0042295149 -0.074462362
-0.1014934 0.0057585826 -0.074512243
-0.095385239 0.0044855895 -0.072611377
-0.085218199 0.0049680951 -0.074287198
-0.079747006 0.0057561961 -0.074986562
-0.060287572 0.0047576027 -0.078796975
-0.055280928 0.0055209557 -0.078021996
-0.045538325 0.0049516666 -0.076417498
-0.036509484 0.004915412 -0.073136732
-0.014652081 0.0047418773 -0.074809313
-0.0091729239 0.0091386531 -0.075175777
0.0082446961 0.0096755708 -0.074080646
0.013233681 0.0042450111 -0.075995289
0.035732735 0.0031401841 -0.072218977
0.044724874 0.0055231294 -0.076136604
0.079318807 0.0046003177 -0.074162543
0.085685596 0.0052437051 -0.074059367
0.095218062 0.0049614073 -0.07254944
0.10101864 0.0051311734 -0.07563401
-0.10073125 0.014766833 -0.075072125
-0.094737634 0.015328034 -0.072557814
-0.085405298 0.014755606 -0.073678859
-0.078901418 0.015960023 -0.074542932
-0.055048432 0.011249762 -0.078462034
-0.044473097 0.014815372 -0.076945297
-0.036428381 0.015660681 -0.073186062
-0.011729816 0.012412703 -0.075088121
-0.0047273599 0.014842661 -0.074340373
0.0048729177 0.014294003 -0.074326478
0.012331596 0.011297604 -0.075241245
0.036462389 0.015900021 -0.073459275
0.045302927 0.015170374 -0.075864181
0.053284932 0.016894965 -0.076103799
0.078353673 0.014821699 -0.074830696
0.084754117 0.015373938 -0.073662847
0.095382839 0.015425465 -0.072666653
0.10056356 0.013826863 -0.075774007
-0.094620496 0.024644965 -0.072849095
-0.084354848 0.024686441 -0.073396809
-0.077056356 0.025500627 -0.0749323
-0.041697618 0.022731645 -0.076750524
-0.03412063 0.024331171 -0.074523836
-0.027203538 0.028544638 -0.07318864
-0.014217034 0.027835913 -0.071811676
-0.0055235736 0.027405029 -0.071514733
0.0031821318 0.027588651 -0.071718797
0.015239359 0.027898837 -0.071538791
0.027318092 0.027643757 -0.073004849
0.034921933 0.023640739 -0.074704185
0.044942688 0.023628617 -0.076412879
0.053616166 0.024588678 -0.074805923
0.077409334 0.026561018 -0.075117096
0.084593609 0.024975335 -0.073375374
0.094396561 0.02489382 -0.073734656
-0.093796678 0.034836747 -0.07395526
-0.084698416 0.035391659 -0.072323352
-0.075786628 0.035231251 -0.074615918
-0.0699628 0.03865895 -0.071173549
-0.031730652 0.033969622 -0.076890066
-0.025665069 0.035187598 -0.075567335
-0.015155801 0.034712039 -0.072094798
-0.0061122663 0.036595289 -0.072918728
0.005500698 0.035595592 -0.072133228
0.013999837 0.035803299 -0.073592685
0.023643147 0.034305003 -0.075360887
0.033149447 0.032895301 -0.077373177
0.069916531 0.038993083 -0.073427826
0.075192034 0.035472021 -0.074019805
0.084536515 0.034746718 -0.072330847
0.093453206 0.034626927 -0.074347064
-0.091339685 0.043841317 -0.074999385
-0.085206263 0.04509579 -0.072799481
-0.074768037 0.044168163 -0.074170977
-0.066274874 0.047048569 -0.075265296
-0.033814967 0.045561623 -0.07528244
-0.024774965 0.044469524 -0.076217249
-0.014500097 0.043215919 -0.076078169
-0.0044193626 0.045816746 -0.076637231
0.0052474476 0.045099966 -0.076548062
0.015745642 0.043426283 -0.077270292
0.024308367 0.04362629 -0.075223878
0.032784298 0.044746894 -0.075442642
0.066623144 0.045599017 -0.074810475
0.074292749 0.045052748 -0.073897369
0.084404431 0.045063246 -0.072939999
0.091592185 0.042994078 -0.074924663
-0.084038354 0.054533623 -0.073889531
-0.074920118 0.054978281 -0.072132543
-0.065330766 0.05508478 -0.074378192
-0.057610657 0.056306757 -0.075473599
-0.032332473 0.051491469 -0.076732919
-0.027443456 0.052173272 -0.07374654
0.026868019 0.051860571 -0.073751278
0.031864304 0.051448353 -0.074611239
0.057393484 0.056479085 -0.074549772
0.06511613 0.054799788 -0.073855981
0.074609637 0.055526886 -0.07219141
0.084201321 0.054611087 -0.074283384
-0.080969758 0.061592501 -0.075758144
-0.074761778 0.064534098 -0.074248329
-0.06495744 0.064438239 -0.072238863
-0.054827977 0.064552918 -0.074571401
-0.046128832 0.066503987 -0.075340711
-0.039042406 0.069829188 -0.076212645
0.039932553 0.06920284 -0.076460689
0.046460535 0.0665766 -0.07493078
0.05505757 0.065214448 -0.074200407
0.064657874 0.065324306 -0.072927564
0.074040979 0.064530395 -0.073669337
0.081380762 0.060584474 -0.076274
-0.072165817 0.071643762 -0.074371718
-0.06362775 0.074615814 -0.072929226
-0.054610781 0.074886844 -0.072549962
-0.045435172 0.074493222 -0.074179582
-0.035328839 0.074798577 -0.075160921
-0.0252237 0.076894671 -0.075211771
-0.015038212 0.078606263 -0.075878732
-0.004508887 0.079517998 -0.075801842
0.0051507526 0.079582587 -0.075279169
0.015119301 0.078538015 -0.0745949
0.025360363 0.076971166 -0.075415365
0.036142915 0.07580056 -0.074419633
0.045154601 0.074053742 -0.074022822
0.054488149 0.074755035 -0.072500817
0.065033235 0.074342296 -0.073875345
0.07099665 0.072539918 -0.07215777
-0.061457578 0.080855757 -0.075907335
-0.053781405 0.08469893 -0.074520767
-0.045027036 0.085388482 -0.072958961
-0.034500517 0.084357239 -0.072742671
-0.025253637 0.084290788 -0.072930284
-0.015264374 0.085159726 -0.07362882
-0.0041592643 0.085822254 -0.074250795
0.0047268467 0.085758537 -0.074201524
0.015713518 0.084867977 -0.073375225
0.024515551 0.083610132 -0.073727034
0.034670919 0.08477477 -0.071994558
0.045066264 0.085687555 -0.073062852
0.054590557 0.084124796 -0.075501472
0.060327388 0.081774376 -0.071804464
-0.043565605 0.091742806 -0.075232573
-0.035208121 0.094177552 -0.074794203
-0.025255661 0.095762156 -0.073775977
-0.015253211 0.094914161 -0.072965309
-0.0059559592 0.095137164 -0.072248183
0.0045675719 0.095441148 -0.072529688
0.015172405 0.095020406 -0.072855242
0.024510795 0.095066793 -0.07361605
0.034030803 0.093585536 -0.073634639
0.042152509 0.091988496 -0.075707085
-0.013546935 0.10067321 -0.074736536
-0.0049690846 0.10145354 -0.075119689
0.005279405 0.10150132 -0.075460471
0.014702296 0.10059053 -0.074854597
-0.014248996 -0.10076183 -0.067683809
-0.0041490463 -0.10149622 -0.06691175
0.0066382331 -0.10128694 -0.066475883
0.013284383 -0.10073155 -0.066466317
-0.043784913 -0.091648333 -0.066823669
-0.034352336 -0.094417214 -0.065767244
-0.025410438 -0.096059069 -0.065120593
-0.015642332 -0.096107326 -0.063862823
-0.00567109 -0.094530083 -0.063053213
0.0043468517 -0.094923697 -0.063149355
0.016838189 -0.095419683 -0.063744381
0.025211588 -0.09570659 -0.065363869
0.034919497 -0.094829075 -0.067157023
0.042317543 -0.092369698 -0.068506062
-0.061335117 -0.080855682 -0.065882415
-0.054234687 -0.084178254 -0.065575346
-0.047077395 -0.085079104 -0.064057574
-0.035433598 -0.086262375 -0.062567987
-0.024851298 -0.086884417 -0.06172375
-0.015618762 -0.085565776 -0.06441053
-0.0052007781 -0.085195839 -0.065152213
0.0051593655 -0.085943513 -0.064434491
0.015534358 -0.085256062 -0.063511297
0.025066469 -0.086416371 -0.061663825
0.034404144 -0.083290949 -0.061512209
0.045946117 -0.086485744 -0.064096421
0.056243435 -0.083984286 -0.066768654
0.060841732 -0.080637291 -0.066489518
-0.073556945 -0.070186742 -0.065388158
-0.064072929 -0.073988028 -0.064308278
-0.055051755 -0.075930886 -0.062767558
-0.04391415 -0.075213678 -0.065024845
-0.032761335 -0.073193811 -0.068892837
-0.023812544 -0.077340752 -0.068939909
-0.010389913 -0.079235852 -0.068718806
-0.0031405881 -0.07717219 -0.066425301
0.0012658127 -0.07553865 -0.064091012
0.014064672 -0.079378352 -0.068751708
0.025104534 -0.076559708 -0.068969794
0.035321072 -0.076197021 -0.066482447
0.044508345 -0.076400995 -0.062483855
0.0552742 -0.074897729 -0.062672868
0.065367177 -0.075336054 -0.066034056
0.071813732 -0.070947818 -0.066011816
-0.081487581 -0.060964216 -0.06724
-0.074967086 -0.065519862 -0.065580145
-0.066143975 -0.065981731 -0.062655643
-0.054231379 -0.065275364 -0.065792784
-0.043236591 -0.06566295 -0.064439289
-0.036038648 -0.063456044 -0.061745111
-0.024813272 -0.063082851 -0.063380636
-0.014942673 -0.064686008 -0.062927209
-0.0054265689 -0.064677432 -0.063395113
0.0052137054 -0.063981086 -0.064057343
0.014726683 -0.064548098 -0.062164199
0.024136998 -0.063258089 -0.063277103
0.036253117 -0.063428216 -0.061107777
0.04274404 -0.065397285 -0.064797312
0.054628741 -0.064893171 -0.064884774
0.063306063 -0.065359585 -0.061929427
0.07585296 -0.0647576 -0.065874383
0.080921933 -0.061509453 -0.068092525
-0.084259897 -0.054900296 -0.065915115
-0.073684789 -0.053390831 -0.063457482
-0.065625034 -0.052710436 -0.064923987
-0.054144911 -0.059913766 -0.069277279
-0.042353246 -0.052726205 -0.063302375
-0.035720307 -0.056046456 -0.062988788
-0.028071975 -0.05942532 -0.063278787
-0.011953925 -0.054602727 -0.064509146
-0.0072221975 -0.055037897 -0.064905643
0.006269299 -0.056309246 -0.064844884
0.010999529 -0.059000436 -0.067364633
0.028548293 -0.058558565 -0.0628509
0.035471808 -0.055898391 -0.062810808
0.042653289 -0.05182879 -0.063519508
0.056122635 -0.057489879 -0.068902232
0.065062881 -0.052857626 -0.065026686
0.07357955 -0.054847348 -0.063217446
0.084504642 -0.054785911 -0.06668108
-0.092382304 -0.042223386 -0.066956937
-0.085908189 -0.044429224 -0.063846387
-0.074336462 -0.046440039 -0.064075939
-0.066020362 -0.045469932 -0.064555079
-0.054171555 -0.043694861 -0.063356571
-0.04746398 -0.04654295 -0.063078001
-0.0014545217 -0.043922547 -0.066841491
0.0014650578 -0.045420699 -0.067044221
0.046741083 -0.046653345 -0.063428909
0.05399498 -0.043763012 -0.063083336
0.065158986 -0.045244649 -0.0650075
0.07443846 -0.044451352 -0.064889506
0.085804828 -0.045987945 -0.064597182
0.091683485 -0.042564619 -0.066337094
-0.093275607 -0.035247233 -0.065135933
-0.085452557 -0.035687637 -0.063085929
-0.074836433 -0.033555806 -0.065434314
-0.064658612 -0.035264615 -0.06379199
-0.057733417 -0.033596668 -0.063006073
-0.04417938 -0.035898414 -0.06387829
-0.023199931 -0.03259398 -0.06351874
-0.01562582 -0.034498788 -0.064762719
-0.0049618264 -0.038446207 -0.066180244
0.0053750379 -0.038347788 -0.063244253
0.01525902 -0.034535758 -0.065705791
0.02407228 -0.03269003 -0.064990647
0.043632269 -0.035629291 -0.06406226
0.056013163 -0.035599981 -0.063618794
0.064324357 -0.03400974 -0.063718803
0.073525198 -0.034364991 -0.065967016
0.083993249 -0.035109103 -0.062852584
0.093996383 -0.033832237 -0.065463684
-0.10005255 -0.020568229 -0.069498107
-0.095368855 -0.025945026 -0.065120943
-0.085224181 -0.025100447 -0.060787037
-0.075590424 -0.025792195 -0.067680337
-0.064212136 -0.024217606 -0.063290164
-0.056394204 -0.026279179 -0.063630275
-0.04257901 -0.024341825 -0.063432068
-0.03403341 -0.023124002 -0.064824544
