# .PCD v0.7 - Point Cloud Data file format
VERSION 0.7
FIELDS x y z
SIZE 4 4 4
TYPE F F F
COUNT 1 1 1
WIDTH 1264
HEIGHT 1
VIEWPOINT 0 0 0 1 0 0 0
POINTS 1264
DATA ascii
-0.065424077 0.045768172 -0.10485297
-0.05266799 0.043500919 -0.10398361
-0.048424006 0.048240762 -0.10567721
0.047594056 0.049030803 -0.10338168
0.052972484 0.044188347 -0.10451327
0.065758996 0.045911726 -0.10489111
0.073057637 0.043384448 -0.10528427
0.089568444 0.048675891 -0.10620996
0.091639355 0.044229336 -0.10513305
-0.08545135 0.055285566 -0.10454992
-0.070743121 0.052303825 -0.10763212
-0.063552052 0.053846449 -0.10494893
-0.056833643 0.055692829 -0.1048087
-0.043260369 0.053547628 -0.10470624
-0.037441399 0.057108816 -0.10560984
0.035961039 0.05797901 -0.10491664
0.042723361 0.053339019 -0.10305377
0.056591608 0.055715796 -0.10492036
0.064147361 0.054207169 -0.10551787
0.071500786 0.052056901 -0.10888518
0.08550749 0.055244494 -0.10501007
-0.08119905 0.061203618 -0.10496406
-0.077116005 0.066463731 -0.10554474
-0.06190794 0.062727593 -0.10772779
-0.053973798 0.062841155 -0.10495667
-0.046248369 0.065797426 -0.10409122
-0.035979252 0.066456109 -0.10566787
-0.024939355 0.063595362 -0.10498077
-0.01475954 0.066685908 -0.10487767
-0.0050940467 0.06806349 -0.10442702
0.0046702819 0.068098783 -0.10546749
0.014193751 0.066855408 -0.10405451
0.024896244 0.063615181 -0.10453337
0.033901922 0.064760052 -0.10500934
0.045685794 0.066368684 -0.10441246
0.053797111 0.064273424 -0.1055808
0.061330579 0.063124873 -0.10811903
0.076736279 0.066983841 -0.1044488
0.080694959 0.061823923 -0.10618709
-0.071709894 0.072162263 -0.1054434
-0.066900156 0.076761782 -0.10507696
-0.051172156 0.071854979 -0.10749409
-0.04359309 0.072965033 -0.10547529
-0.034625355 0.073874615 -0.10467329
-0.025330771 0.076422721 -0.10495859
-0.015087255 0.077787347 -0.1053402
-0.0052645896 0.078374363 -0.10455994
0.0049732723 0.078218646 -0.10446586
0.01584335 0.07762973 -0.10453441
0.024555529 0.076334439 -0.10462948
0.034886684 0.074008927 -0.10436121
0.044131853 0.074323192 -0.10599323
0.052136224 0.070952795 -0.10775732
0.067360155 0.076400414 -0.10550422
0.072234102 0.071637973 -0.10515224
-0.061412476 0.08128015 -0.10608446
-0.054910075 0.085767642 -0.10527392
-0.047833916 0.083827458 -0.10643216
-0.032583334 0.081899777 -0.10786134
-0.0243234 0.082531787 -0.1060815
-0.014985248 0.082450263 -0.10466296
-0.0045862617 0.083654515 -0.10473549
0.0052686306 0.08391729 -0.10497287
0.014656847 0.082572646 -0.10468455
0.024765257 0.083283238 -0.10663681
0.034021299 0.081218459 -0.10759377
0.047747627 0.083634429 -0.10600551
0.054345824 0.086125061 -0.10460242
0.061908603 0.080864452 -0.10369525
-0.043322936 0.09208443 -0.10530586
-0.034745216 0.095719568 -0.10513477
-0.025018439 0.098695807 -0.10544469
-0.019642316 0.099969454 -0.10392298
0.019475117 0.099990293 -0.10976112
0.025252251 0.098528832 -0.10517195
0.035465289 0.095464729 -0.10529321
0.043501228 0.09194421 -0.1047153
-0.015372315 0.10069066 -0.10561786
-0.0044670017 0.1017248 -0.10424992
0.0044837617 0.10172548 -0.10599771
0.014194663 0.10086985 -0.10498603
-0.014599456 -0.10077227 -0.094103083
-0.0055302936 -0.10172267 -0.095109895
0.0045265583 -0.10177345 -0.094902985
0.014060699 -0.1008172 -0.094691038
-0.044184987 -0.091569133 -0.095006727
-0.034278717 -0.095829971 -0.094779134
-0.024934482 -0.098547742 -0.095205098
-0.019848311 -0.099967495 -0.098548263
0.019847095 -0.099964172 -0.095581114
0.025285307 -0.098579995 -0.094086327
0.033972431 -0.09598466 -0.094927765
0.045150708 -0.091180995 -0.095219843
-0.061759714 -0.080984995 -0.096209601
-0.055381443 -0.085425168 -0.095171213
-0.048595581 -0.08956778 -0.094515756
-0.023695307 -0.080897734 -0.096039884
-0.014948138 -0.081559725 -0.092936881
-0.0047812238 -0.083116755 -0.094162241
0.0047118776 -0.083231427 -0.094228812
0.014337997 -0.082038909 -0.093143493
0.022753129 -0.08108899 -0.094671704
0.048584759 -0.089578331 -0.096086882
0.054559976 -0.085951731 -0.095609896
0.061254125 -0.081352696 -0.095159404
-0.071741283 -0.072061539 -0.095000833
-0.066578962 -0.077028774 -0.095106661
-0.042555653 -0.071720384 -0.093262158
-0.034330875 -0.074328341 -0.093685538
-0.025402794 -0.075739235 -0.094045639
-0.013988527 -0.075521834 -0.093953058
-0.0050568897 -0.077281959 -0.094706416
0.0053475443 -0.075992092 -0.094505206
0.014612913 -0.076158367 -0.094518982
0.02539785 -0.075958855 -0.093224168
0.03408717 -0.073724374 -0.094237931
0.043067738 -0.071988843 -0.095366344
0.066368096 -0.077252187 -0.094576143
0.072344653 -0.071458951 -0.095343851
-0.081519686 -0.061024316 -0.094747171
-0.076980293 -0.066664927 -0.094143718
-0.053864498 -0.063284241 -0.094181649
-0.045673978 -0.064559288 -0.094241336
-0.036175095 -0.06728635 -0.094517097
-0.023906464 -0.06278383 -0.093922868
-0.014915821 -0.064575583 -0.094732732
-0.0053048912 -0.066518478 -0.093846381
0.0049544619 -0.066116497 -0.093925506
0.014232564 -0.065299645 -0.094094373
0.025069475 -0.062563062 -0.093723983
0.036408089 -0.067060791 -0.094769031
0.045524184 -0.065473966 -0.093838833
0.054310478 -0.062526271 -0.093686149
0.076600045 -0.067086965 -0.095102258
0.080596998 -0.06228042 -0.093896829
-0.085812554 -0.054742333 -0.095371798
-0.063454799 -0.053844541 -0.094652757
-0.055134818 -0.055992559 -0.094281457
-0.042945243 -0.052456163 -0.094433233
-0.035551444 -0.055897523 -0.093895435
-0.024204383 -0.055873312 -0.094273031
-0.015025984 -0.054793734 -0.094618805
-0.0049744789 -0.05393691 -0.094618805
0.0051136441 -0.055823412 -0.094618805
0.015307951 -0.055035919 -0.094618805
0.025345648 -0.054350082 -0.094489142
0.035581559 -0.056019027 -0.093644574
0.04319245 -0.051988587 -0.094276197
0.0553989 -0.056263197 -0.093837596
0.063403957 -0.054113183 -0.094503351
0.085360885 -0.054329526 -0.096233428
-0.091728814 -0.043962549 -0.094358653
-0.08944615 -0.04889508 -0.097092725
-0.071834967 -0.043160874 -0.09421578
-0.065408804 -0.045929108 -0.094023079
-0.052282713 -0.043148201 -0.095062487
-0.045900889 -0.046597328 -0.094045468
-0.034734361 -0.044176996 -0.094618805
-0.025660165 -0.044175081 -0.094618805
-0.015556748 -0.045317732 -0.094618805
-0.00456178 -0.043422736 -0.094144568
0.0029369867 -0.045861244 -0.093435705
0.015444729 -0.044709723 -0.094618805
0.025125921 -0.04455762 -0.094618805
0.034939371 -0.04438952 -0.094618805
0.045896254 -0.045652881 -0.093678162
0.05315914 -0.0431748 -0.094811872
0.065440819 -0.045447096 -0.094267242
0.073534571 -0.043321453 -0.095780224
0.084559105 -0.047504745 -0.097952195
0.091878407 -0.043537091 -0.09529271
-0.095572464 -0.035081722 -0.095605418
-0.073732503 -0.033904888 -0.093949087
-0.067003511 -0.036706228 -0.095447049
-0.056185719 -0.035280053 -0.093844756
-0.045467298 -0.034961462 -0.094618805
-0.034952946 -0.03472681 -0.094618805
-0.024888102 -0.035258282 -0.094638154
-0.014048506 -0.035307616 -0.094689287
-0.0052905269 -0.034198895 -0.094717801
0.0042491122 -0.03461577 -0.094715081
0.01446479 -0.034426812 -0.094689399
0.023288945 -0.035277583 -0.094640546
0.034789126 -0.035531886 -0.094618805
0.045004018 -0.035182554 -0.094618805
0.056392085 -0.035293851 -0.094433621
0.066977441 -0.035787668 -0.095170505
0.073405609 -0.034479711 -0.093815982
0.095377788 -0.03564002 -0.095042601
-0.098855719 -0.024195323 -0.095238402
-0.080789685 -0.022799319 -0.093437195
-0.075887792 -0.025311729 -0.094271511
-0.062927425 -0.0242518 -0.094934016
-0.054612782 -0.025725538 -0.093921356
-0.044377711 -0.025329817 -0.094618805
-0.035193954 -0.0253837 -0.094629914
-0.024956845 -0.025263535 -0.094706297
-0.015949864 -0.023934435 -0.094718806
-0.0050966246 -0.022607816 -0.093760669
0.0048744129 -0.023933394 -0.094000116
0.015319685 -0.024852144 -0.094718784
0.024576562 -0.025579497 -0.094714634
0.035210058 -0.024357963 -0.094636992
0.045882545 -0.024698654 -0.094618805
0.056479901 -0.024661591 -0.09402933
0.062759727 -0.024744369 -0.094711848
0.075643763 -0.025270363 -0.093802728
0.080854617 -0.023067733 -0.093705863
0.098624617 -0.025126273 -0.09526632
-0.10075772 -0.014836872 -0.094655752
-0.099963307 -0.019559018 -0.093372226
-0.08209078 -0.014590845 -0.093760706
-0.076887339 -0.015054697 -0.094378434
-0.065195136 -0.015072105 -0.094599679
-0.055048723 -0.015669694 -0.094618805
-0.045604326 -0.015398499 -0.094618805
-0.034766242 -0.016357256 -0.094682425
-0.024485191 -0.01672128 -0.094718806
-0.014566123 -0.014446505 -0.094402015
-0.0049767126 -0.014575067 -0.094737589
0.0052134474 -0.014557621 -0.094248205
0.014795557 -0.014228925 -0.093342938
0.024709795 -0.016136499 -0.094718814
0.035065077 -0.01509543 -0.094670981
0.044588476 -0.015146871 -0.094618805
0.055023924 -0.014610327 -0.094618805
0.064867891 -0.014845213 -0.094154663
0.07691589 -0.015041499 -0.094160102
0.082124501 -0.014671361 -0.093233846
0.099897578 -0.019959003 -0.09680403
0.1007531 -0.015048286 -0.095586635
-0.10160899 -0.0055740722 -0.094831623
-0.082931675 -0.0046911719 -0.094007991
-0.07807219 -0.0051963502 -0.094693899
-0.066243418 -0.0047402396 -0.093969896
-0.055388622 -0.0050482326 -0.094618805
-0.045349251 -0.0041520959 -0.094618805
-0.034578796 -0.0045408942 -0.094712213
-0.02418953 -0.004151701 -0.094087034
-0.014490426 -0.0044725272 -0.094747089
-0.009085929 -0.0089341858 -0.095946714
0.0093618631 -0.0085882489 -0.096255809
0.013959232 -0.0049555241 -0.094480805
0.024336696 -0.0046725851 -0.094128624
0.034247987 -0.0052816491 -0.094711669
0.044150721 -0.0044067418 -0.094618805
0.055036046 -0.0056669177 -0.094618805
0.066298403 -0.0051003154 -0.094417311
0.077991985 -0.0050280718 -0.094711863
0.082978219 -0.0049124132 -0.094235517
0.10161829 -0.0055962526 -0.094622701
-0.10169355 0.0047135777 -0.094570138
-0.083027385 0.0044434369 -0.094197527
-0.078096278 0.0054049948 -0.09390007
-0.065857567 0.0055350992 -0.094194345
-0.05548906 0.0040773945 -0.094618805
-0.045549031 0.0054893442 -0.094618805
-0.034483634 0.0049852198 -0.094718806
-0.024956675 0.0053647687 -0.094103873
-0.014101323 0.0045497208 -0.095227249
-0.0086342813 0.0095005203 -0.092228398
0.0087880148 0.0093078194 -0.091698229
0.014273651 0.0049198777 -0.094346449
0.023797203 0.0046734978 -0.093933001
0.035022803 0.005118533 -0.094714053
0.044975031 0.005146055 -0.094618805
0.055068605 0.005680114 -0.094618805
0.065721519 0.0052364501 -0.094434164
0.077853031 0.004802369 -0.094776414
0.083152249 0.0042539542 -0.094566502
0.10168818 0.0045015491 -0.094534539
-0.10067763 0.015354167 -0.095241807
-0.082176253 0.014744873 -0.094024442
-0.077130742 0.015026917 -0.094207592
-0.064748861 0.014537742 -0.093875512
-0.054957651 0.01554438 -0.094618805
-0.045379553 0.015728872 -0.094618805
-0.035193916 0.016067304 -0.094684593
-0.02505949 0.015646655 -0.094718806
-0.014206011 0.015566519 -0.093644649
-0.0052322135 0.014109114 -0.094462901
0.0050038267 0.014283851 -0.093774147
0.015102134 0.014408527 -0.093629345
0.025953356 0.015297101 -0.094718814
0.03542646 0.016098229 -0.094681963
0.044993225 0.014584123 -0.094618805
0.055400688 0.01415438 -0.094618805
0.064198464 0.015268384 -0.093610562
0.076894261 0.014987732 -0.094765134
0.08222536 0.01510231 -0.094503693
0.099918731 0.019788481 -0.09406127
0.10084472 0.01429275 -0.094496757
-0.098649435 0.025015501 -0.095572777
-0.080727786 0.02286583 -0.095246285
-0.075432986 0.025901372 -0.094025157
-0.063063875 0.024622919 -0.094104439
-0.055565827 0.025057744 -0.094116747
-0.045131534 0.024487635 -0.094618805
-0.034569137 0.02490839 -0.09463802
-0.024657136 0.024719283 -0.094718806
-0.013997369 0.026397439 -0.094718806
-0.0044772984 0.024652623 -0.09438841
0.0041660867 0.024094231 -0.093678184
0.015020215 0.024909915 -0.094718799
0.026090164 0.02558282 -0.09469638
0.035026278 0.024957923 -0.094645552
0.045171883 0.026251705 -0.094618805
0.055168614 0.024432506 -0.094228767
0.062740088 0.024437698 -0.0933787
0.075888582 0.025257884 -0.093627788
0.080958731 0.022503721 -0.095039211
0.098700032 0.024823423 -0.094022654
-0.095498368 0.035267211 -0.095028751
-0.074717253 0.0338168 -0.093882345
-0.067346483 0.036744181 -0.094948724
-0.056044072 0.035433549 -0.094152682
-0.04529193 0.035468429 -0.094618805
-0.034711454 0.035515465 -0.094618805
-0.024445755 0.033724263 -0.094650626
-0.013001254 0.035517428 -0.094690241
-0.0052192993 0.035760488 -0.094707042
0.0049797622 0.036054801 -0.094711095
0.014856685 0.035022687 -0.094691522
0.024821781 0.035455357 -0.094624363
0.034665152 0.033531033 -0.094618805
0.044761047 0.033421602 -0.094618805
0.055582456 0.035343345 -0.0937929
0.065683059 0.035531867 -0.094319373
0.073991977 0.034155503 -0.093343496
0.09558364 0.035094488 -0.09517096
-0.091603085 0.044377036 -0.09432032
-0.085192598 0.047439106 -0.092082031
-0.072126366 0.043671951 -0.093250431
-0.065543279 0.045187462 -0.094067074
-0.05274627 0.043153297 -0.094764911
-0.045751471 0.046427894 -0.093634047
-0.03334941 0.046330463 -0.094618805
-0.025013613 0.044932228 -0.094618805
-0.014444554 0.044448227 -0.094618805
-0.0052887318 0.045399722 -0.093904801
0.0040622051 0.045734052 -0.093642779
0.015460256 0.045852479 -0.094618805
0.025174012 0.043975476 -0.094618805
0.03545526 0.044643834 -0.094618805
0.046763517 0.046500057 -0.094125338
0.052281652 0.043343265 -0.094218373
0.065233171 0.0454056 -0.094205216
0.072797075 0.043640606 -0.093485206
0.086155325 0.04740078 -0.092345342
0.091347434 0.044917755 -0.09443184
-0.085072652 0.055067472 -0.094871342
-0.063306831 0.0542522 -0.093955494
-0.05538784 0.055751648 -0.094607674
-0.044293281 0.053115427 -0.094236486
-0.035159308 0.056375571 -0.093848571
-0.025392486 0.055722576 -0.093933105
-0.014931202 0.054650396 -0.094618805
-0.0048863082 0.055946387 -0.094618805
0.0048274896 0.055009298 -0.094618805
0.01456365 0.055278383 -0.094618805
0.025925972 0.055025578 -0.094042823
0.035522357 0.055551458 -0.093777426
0.043849129 0.052492429 -0.094684891
0.056351081 0.055846434 -0.094312064
0.063552886 0.053782836 -0.09396743
0.085256062 0.055386711 -0.093931004
-0.081155404 0.06126029 -0.095368549
-0.076902702 0.066669531 -0.094915584
-0.054407343 0.062898912 -0.094435349
-0.045598473 0.064925455 -0.093681216
-0.036451694 0.066765554 -0.094210535
-0.024054894 0.062888421 -0.094250962
-0.015439916 0.065002955 -0.09409108
-0.0052286661 0.065548159 -0.093578264
0.0045104087 0.065578066 -0.094235063
0.01477737 0.064987808 -0.094004489
0.02525685 0.062239658 -0.094279513
0.036366031 0.067141615 -0.0958535
0.045477718 0.065485522 -0.093967438
0.054373804 0.06292671 -0.093507953
0.076984942 0.066605173 -0.094246678
0.080661155 0.061902326 -0.095178194
-0.071947396 0.071855649 -0.095430553
-0.066590734 0.077053227 -0.09408915
-0.042058405 0.071778074 -0.093892314
-0.034198359 0.073835477 -0.093872555
-0.025652617 0.075415827 -0.094439425
-0.015103369 0.07682576 -0.093998715
-0.0045364709 0.077958271 -0.095047884
0.0052827299 0.078085758 -0.094649017
0.015298669 0.076792635 -0.094183274
0.025195261 0.075664259 -0.093729116
0.034314539 0.073809735 -0.093933679
0.042639878 0.071977824 -0.093911014
0.065808378 0.077775411 -0.094927154
0.071881585 0.071921192 -0.095019966
-0.061677143 0.08103618 -0.093902603
-0.053859875 0.086423047 -0.094655782
-0.049032021 0.089360341 -0.095337398
-0.022764558 0.081006542 -0.095015138
-0.015283262 0.0818884 -0.094421759
-0.0045467978 0.083284475 -0.093855068
0.0052539743 0.08334408 -0.094598629
0.014342453 0.082094826 -0.094439939
0.022768598 0.081142135 -0.09507551
0.049129769 0.089294523 -0.095294535
0.054983363 0.085692495 -0.094817854
0.061747655 0.080981106 -0.093872547
-0.044268858 0.091594741 -0.095647611
-0.033572014 0.096138425 -0.09557505
-0.024120526 0.098892868 -0.094449222
-0.019750003 0.0999991 -0.091474682
0.019745877 0.099983543 -0.099085324
0.024699787 0.098606184 -0.094801299
0.035226539 0.095513009 -0.094028853
0.043427318 0.091912188 -0.094627887
-0.014604696 0.10077662 -0.096324928
-0.0058850674 0.10159092 -0.094841287
0.0050287317 0.10165873 -0.095120557
0.015458582 0.10067561 -0.094901502
-0.014992854 -0.10073728 -0.085020594
-0.0044571627 -0.10150217 -0.086580835
0.0055410159 -0.10126474 -0.084677249
0.014965898 -0.10073304 -0.085115172
-0.043962497 -0.091637053 -0.08678291
-0.035164103 -0.095454082 -0.084780723
-0.024576968 -0.098612711 -0.085274257
-0.0028149216 -0.09438324 -0.084134035
0.0023790901 -0.09528254 -0.084767438
0.025393942 -0.098474778 -0.084871978
0.035006236 -0.095596343 -0.083980046
0.044861067 -0.091260672 -0.085971326
-0.061546385 -0.081047714 -0.084858865
-0.055064343 -0.085552707 -0.085648432
-0.04921902 -0.089209221 -0.085287109
-0.033812642 -0.081593655 -0.083850138
-0.024190392 -0.084007747 -0.086227782
-0.015189842 -0.085397296 -0.086589172
-0.0048040049 -0.085891187 -0.087353423
0.0056042471 -0.086504288 -0.086259417
0.015094056 -0.085186288 -0.087223575
0.025214355 -0.083834909 -0.086342104
0.034248795 -0.081368804 -0.084626868
0.049401451 -0.089117758 -0.081677161
0.054458018 -0.085962139 -0.084798448
0.061286248 -0.081232034 -0.084856264
-0.071381554 -0.072367959 -0.084929101
-0.06687431 -0.076783009 -0.084827408
-0.051806286 -0.071174614 -0.085925952
-0.045118254 -0.074234799 -0.086812727
-0.035032388 -0.074230477 -0.085989311
-0.025613591 -0.075214259 -0.085726246
-0.014249274 -0.075567462 -0.085213833
-0.0042323568 -0.076963916 -0.084794365
0.0044729216 -0.076357819 -0.084684774
0.014299185 -0.076339707 -0.085265644
0.024200166 -0.075628608 -0.085283771
0.035320476 -0.074479811 -0.086674131
0.044283889 -0.075677067 -0.085374333
0.05183151 -0.071341842 -0.083828665
0.066567905 -0.077013016 -0.08607509
0.071624853 -0.072128408 -0.085653983
-0.081131637 -0.061451163 -0.086289532
-0.0771726 -0.066428982 -0.085547805
-0.0622751 -0.061953001 -0.08536756
-0.055019103 -0.064893097 -0.085727207
-0.045396741 -0.064830244 -0.085442685
-0.034163523 -0.064070277 -0.085652605
-0.023714561 -0.062712371 -0.086136527
-0.01522087 -0.064243592 -0.086392373
-0.0052878405 -0.064953759 -0.085666366
0.0043781972 -0.065903448 -0.08614058
0.015464916 -0.064540185 -0.086054295
0.023381069 -0.062738545 -0.086323276
0.03570234 -0.066897258 -0.085111588
0.045179896 -0.065042473 -0.085558102
0.053722721 -0.064803027 -0.087349355
0.062013358 -0.062319715 -0.086371832
0.076686434 -0.067007586 -0.084639423
0.081407845 -0.061050911 -0.08613494
-0.085559793 -0.055060871 -0.085839748
-0.071361139 -0.051799066 -0.085157081
-0.064752385 -0.055001259 -0.087025143
-0.0553388 -0.056554548 -0.085208319
-0.04219583 -0.053259883 -0.086148344
-0.035204012 -0.055636633 -0.085880347
-0.025106939 -0.055242877 -0.08528281
-0.014533645 -0.054275315 -0.08406274
-0.0048488523 -0.054671969 -0.084310085
0.0054783896 -0.055266086 -0.084298745
0.014305312 -0.055124406 -0.084608085
0.024955867 -0.05552204 -0.085395582
0.034897435 -0.05531127 -0.08585076
0.042329587 -0.052732173 -0.085688613
0.05619736 -0.055870142 -0.085354313
0.064862713 -0.054457527 -0.087285809
0.071286209 -0.052246209 -0.083773047
0.084592834 -0.056457475 -0.084756091
-0.09156689 -0.044200927 -0.085707061
-0.089144275 -0.049357142 -0.082663052
-0.07516323 -0.044492863 -0.086487263
-0.064559616 -0.045638345 -0.08465714
-0.052176774 -0.042608231 -0.086232334
-0.045370184 -0.045640532 -0.085788243
-0.03514256 -0.045029227 -0.084768809
-0.025111714 -0.044237934 -0.084579356
-0.015353885 -0.046189975 -0.084265664
-0.0042783935 -0.04522863 -0.085498773
0.0045083091 -0.045533609 -0.084851548
0.014743798 -0.045369256 -0.0849021
0.024974493 -0.044155989 -0.084135741
0.034863301 -0.045238245 -0.084683247
0.046030708 -0.045794029 -0.086167917
0.053066615 -0.042526718 -0.086148724
0.065176085 -0.045635235 -0.085899323
0.074634053 -0.044991277 -0.086514845
0.089380145 -0.048669133 -0.083885223
0.091986418 -0.04317937 -0.085658498
-0.095725298 -0.034575384 -0.084283285
-0.08142101 -0.033779301 -0.085345842
-0.073541425 -0.034831982 -0.086230569
-0.066062711 -0.034511302 -0.084750086
-0.055933669 -0.034860209 -0.085965477
-0.045291819 -0.035097443 -0.084885471
-0.03566635 -0.03475086 -0.084095515
-0.025815614 -0.036657728 -0.084707797
-0.015184668 -0.034612283 -0.085254796
-0.0053553423 -0.034982227 -0.085218795
0.0051427442 -0.034752246 -0.085222647
0.014764641 -0.034353528 -0.085243799
0.025313308 -0.036339361 -0.084739335
0.03463253 -0.034385495 -0.08394219
0.045148011 -0.035082564 -0.084768802
0.055591077 -0.035471246 -0.086018652
0.064056247 -0.034497779 -0.08527942
0.074406333 -0.035079353 -0.08637847
0.081427239 -0.03340273 -0.084926538
0.095785968 -0.034529064 -0.084306702
-0.098552041 -0.02510152 -0.084905811
-0.083661318 -0.025155943 -0.085697822
-0.075427882 -0.025124118 -0.085671127
-0.062448565 -0.024834156 -0.086584382
-0.055422809 -0.02548008 -0.085379705
-0.044124994 -0.025389353 -0.084385723
-0.035808377 -0.026287165 -0.084826574
-0.024331367 -0.024850018 -0.08522296
-0.016280591 -0.024280833 -0.085218795
-0.0040093977 -0.024156846 -0.086004369
0.0048380536 -0.024011098 -0.085969388
0.015052773 -0.024734715 -0.085218795
0.025287664 -0.024490006 -0.085223138
0.034856841 -0.025555404 -0.085013613
0.044040602 -0.024166776 -0.084319457
0.055351261 -0.024959734 -0.085452847
0.062772468 -0.023842128 -0.086291581
0.075235926 -0.02574973 -0.085497752
0.083776072 -0.025291767 -0.086231768
0.098701112 -0.024531698 -0.08497905
-0.10076731 -0.014246978 -0.084737346
-0.085792243 -0.014937033 -0.086801663
-0.076813504 -0.016127547 -0.084817261
-0.064425386 -0.014582145 -0.086353444
-0.054731403 -0.016065244 -0.084728546
-0.045595098 -0.014751857 -0.084688053
-0.034185067 -0.015297149 -0.085237838
-0.024494775 -0.014637876 -0.085218795
-0.013506141 -0.015075601 -0.086984895
-0.0055359923 -0.013706598 -0.084369548
0.005787726 -0.01417285 -0.084898703
0.014538921 -0.013920811 -0.085987322
0.025649982 -0.01445915 -0.085218795
0.035833664 -0.014835088 -0.085263804
0.045877583 -0.014672321 -0.084044114
0.054520417 -0.014813391 -0.084829912
0.064632289 -0.014580395 -0.085960723
0.077541247 -0.015463405 -0.085931286
0.085778132 -0.01485748 -0.08592733
0.099945314 -0.019792007 -0.084033154
0.10075895 -0.014340108 -0.084710099
-0.10156227 -0.0054914067 -0.083822072
-0.085916869 -0.0049376357 -0.087172046
-0.078683987 -0.0043610702 -0.085354723
-0.065562323 -0.0047211428 -0.085996814
-0.053509314 -0.0053041638 -0.084756017
-0.046173666 -0.0053764204 -0.08438912
-0.035572011 -0.0040903348 -0.085237361
-0.024784293 -0.0045353342 -0.08607775
-0.014805824 -0.0054528648 -0.085781716
-0.0092938645 -0.0086734425 -0.084491923
0.0092801489 -0.0086907167 -0.086068727
0.014297097 -0.0049968301 -0.085056171
0.024333397 -0.006350012 -0.086300671
0.035631042 -0.0063451226 -0.085238449
0.046102431 -0.005400415 -0.084288858
0.05445895 -0.0052027577 -0.084809043
0.065598249 -0.0054531922 -0.085961781
0.078912713 -0.0056328606 -0.085204326
0.086131185 -0.0045674802 -0.086821787
0.1015913 -0.0052701691 -0.085009336
-0.10158087 0.0053408672 -0.084344991
-0.086353332 0.0051816516 -0.086197302
-0.078534991 0.0051826499 -0.083994828
-0.064729184 0.005654037 -0.085619956
-0.054861501 0.0035722747 -0.083509482
-0.046137765 0.0056679728 -0.084117778
-0.033422597 0.0049825837 -0.085218795
-0.024297021 0.0046617012 -0.085707039
-0.014263135 0.004180239 -0.084916703
-0.0091761928 0.0088209826 -0.08597257
0.0088826055 0.0091892062 -0.086583398
0.014518281 0.0047428254 -0.084664539
0.024621544 0.0051324894 -0.085526161
0.035460602 0.0041498798 -0.085225947
0.045798074 0.0050833835 -0.084166482
0.053985771 0.0053259954 -0.084752135
0.066126175 0.0043480308 -0.086158417
0.078805543 0.0050604097 -0.085217357
0.086221814 0.0052652005 -0.086628892
0.10167967 0.0041095084 -0.084551498
-0.10076199 0.014287188 -0.084264383
-0.099962696 0.019648319 -0.089627862
-0.085567571 0.01498503 -0.086760931
-0.077428579 0.01490768 -0.084807061
-0.06477271 0.015156029 -0.08590059
-0.054902259 0.014153494 -0.084211171
-0.045671001 0.015777741 -0.084540516
-0.034699287 0.014161385 -0.085245468
-0.026369637 0.01442067 -0.085218795
-0.013931158 0.014092297 -0.086699255
-0.0045717279 0.014127987 -0.085527971
0.0049150763 0.014044328 -0.08553312
0.014133068 0.013406655 -0.086205371
0.024621893 0.015773421 -0.08521881
0.03479537 0.013883411 -0.085241884
0.045369945 0.014674349 -0.08401259
0.055116788 0.014936849 -0.0843499
0.064191863 0.015137576 -0.085763939
0.077798262 0.014799061 -0.085113101
0.085001417 0.014564337 -0.087018989
0.099953644 0.01967505 -0.085853592
0.10069571 0.015233512 -0.085926831
-0.098473772 0.025415497 -0.08615426
-0.084441558 0.023432694 -0.085097685
-0.075617723 0.024567159 -0.085931398
-0.062671512 0.024328761 -0.086508892
-0.055648442 0.025025608 -0.08555223
-0.044336423 0.025744934 -0.084598653
-0.035978619 0.025288124 -0.085027501
-0.02411931 0.02494001 -0.085225463
-0.015526377 0.025806313 -0.085218795
-0.0056472304 0.024867726 -0.085498296
0.005211269 0.025740704 -0.085520335
0.015295102 0.026846511 -0.085218795
0.024677889 0.026529728 -0.085232131
0.035951499 0.024350118 -0.085046388
0.04528844 0.024725283 -0.084392115
0.055319447 0.025070753 -0.084300175
0.062945507 0.023933869 -0.086221464
0.075294249 0.025116274 -0.085585885
0.083902881 0.025840871 -0.086137816
0.098407961 0.025645841 -0.084947698
-0.095988959 0.033906657 -0.084105894
-0.081122756 0.034610931 -0.085088938
-0.074844509 0.035182279 -0.086688362
-0.06522987 0.035112131 -0.084389381
-0.055307198 0.034463096 -0.085909911
-0.0439687 0.035706382 -0.084815942
-0.035066836 0.03506811 -0.084521331
-0.024922028 0.035330899 -0.084889106
-0.015254133 0.034586519 -0.085257933
-0.006107463 0.035261352 -0.085225478
0.0053168712 0.035483185 -0.085234217
0.01516085 0.034285847 -0.085250951
0.025262062 0.035792436 -0.084798694
0.035435144 0.034602486 -0.084319405
0.045721907 0.035155535 -0.084758446
0.054636132 0.035319608 -0.085579135
0.067074649 0.036618125 -0.084190756
0.073903024 0.034844141 -0.086974487
0.081259616 0.034212064 -0.084644511
0.095776372 0.034676228 -0.084894694
-0.091473274 0.044542283 -0.083647855
-0.085495435 0.047457714 -0.086088359
-0.076399788 0.04484351 -0.086525671
-0.065350436 0.045073573 -0.08638379
-0.053114939 0.043260124 -0.085821867
-0.045487963 0.045201715 -0.08554963
-0.035178434 0.04514847 -0.084292792
-0.024723018 0.044140656 -0.083930641
-0.014870424 0.045907669 -0.084157713
-0.0047228094 0.046064399 -0.084482767
0.0039860606 0.045877185 -0.084926173
0.014873031 0.045002416 -0.08413668
0.024902869 0.044457208 -0.083888695
0.034948647 0.04437742 -0.084204108
0.045393191 0.045873806 -0.085829169
0.052422855 0.042880546 -0.086096533
0.06570264 0.044752344 -0.085341781
0.076110147 0.045069464 -0.086714514
0.085883826 0.047291987 -0.085566856
0.09196686 0.0435437 -0.086147822
-0.084832981 0.054335091 -0.086062774
-0.072617382 0.051447917 -0.085796975
-0.065065458 0.054704696 -0.087492004
-0.056166284 0.056469221 -0.086066291
-0.043267015 0.052530169 -0.086284734
-0.035128053 0.055602796 -0.085990362
-0.026072362 0.055964611 -0.084944628
-0.015502458 0.055437539 -0.084670082
-0.0051532821 0.055103425 -0.084883392
0.0056021344 0.055087518 -0.084658794
0.014428519 0.054268967 -0.084888361
0.024719633 0.055513937 -0.085245885
0.034716647 0.054915227 -0.085679539
0.042692956 0.052293748 -0.086253777
0.056457937 0.054810762 -0.083998159
0.065378077 0.055491172 -0.086545423
0.073210433 0.051586624 -0.088022828
0.084968179 0.054571286 -0.084787026
-0.08138527 0.060946912 -0.086716294
-0.078302704 0.064930342 -0.084845625
-0.062199373 0.062122755 -0.085996233
-0.055235922 0.064718977 -0.087164134
-0.044704854 0.065108463 -0.084734842
-0.034927741 0.065640181 -0.084623285
-0.024722639 0.062819958 -0.086010337
-0.014977954 0.064720877 -0.085992403
-0.0052254051 0.065598391 -0.085739709
0.005532186 0.065183081 -0.086017683
0.014542312 0.064807229 -0.085746415
0.024315365 0.063019596 -0.086299144
0.034934241 0.065451764 -0.084944159
0.045170542 0.065604366 -0.085598595
0.054354552 0.065145448 -0.087033093
0.062394869 0.062059827 -0.085739061
0.077543303 0.065931603 -0.084354118
0.081389301 0.060938515 -0.084228359
-0.071754538 0.071997464 -0.085417017
-0.066488974 0.077106327 -0.085673802
-0.052242454 0.071021937 -0.085201353
-0.044968553 0.074794181 -0.085897639
-0.034924909 0.073308676 -0.086452141
-0.024425775 0.075188689 -0.085028738
-0.015051299 0.077567853 -0.085231438
-0.0049571227 0.078688905 -0.085335188
0.0055384035 0.078887433 -0.084879637
0.015030936 0.07738813 -0.084859826
0.02524646 0.07537888 -0.085747249
0.035074707 0.075230286 -0.08767195
0.045795172 0.074718252 -0.0850465
0.051449876 0.071510583 -0.085083291
0.066818282 0.076769225 -0.084938876
0.071826622 0.071920894 -0.08452341
-0.061135832 0.081361301 -0.08712884
-0.055416852 0.085320272 -0.085558891
-0.04908146 0.089288265 -0.085240617
-0.03389411 0.081439689 -0.085578993
-0.024830483 0.083950706 -0.085832566
-0.015287206 0.085747227 -0.086522326
-0.0044241399 0.085853532 -0.087357864
0.00476705 0.086776763 -0.085469432
0.014618902 0.085338585 -0.086269826
0.026098557 0.082878225 -0.086940177
0.034133218 0.081497863 -0.083139859
0.048887547 0.089371182 -0.084980108
0.054578971 0.085890599 -0.084761724
0.061005224 0.081426412 -0.084836274
-0.043080326 0.092083275 -0.084679991
-0.034291942 0.095893048 -0.085057482
-0.025890555 0.098341808 -0.084882297
-0.019942304 0.099958688 -0.087529026
0.024399418 0.0986595 -0.084788263
0.035539329 0.095337547 -0.084820092
0.042702727 0.092218384 -0.085094884
-0.014857749 0.10069386 -0.085161135
-0.0038690795 0.10171407 -0.084852271
0.0052303113 0.10160706 -0.085048616
0.014718775 0.10073362 -0.085179999
-0.014412271 -0.10075993 -0.075063139
-0.0035595235 -0.10141823 -0.07616733
0.0051091625 -0.10129977 -0.07595399
0.013595094 -0.10082754 -0.075265974
-0.043928489 -0.091347389 -0.074930586
-0.034297351 -0.093426511 -0.074304432
-0.02466101 -0.094704047 -0.073262192
-0.015009959 -0.09524294 -0.072912186
-0.0044511277 -0.094865233 -0.072949335
0.0049132574 -0.094795622 -0.072830543
0.014795363 -0.094848499 -0.072470233
0.024412064 -0.09546423 -0.073925547
0.034273513 -0.094135456 -0.074434876
0.043295383 -0.091606162 -0.074413851
-0.061475031 -0.081014052 -0.074113593
-0.054397639 -0.083828412 -0.074524753
-0.045026459 -0.085289061 -0.072951354
-0.035028324 -0.084389329 -0.07248114
-0.024974624 -0.084407575 -0.073589146
-0.015535269 -0.084712557 -0.07420551
-0.0049197897 -0.085327134 -0.073715262
0.0053457217 -0.085575469 -0.07407365
0.014799331 -0.085096754 -0.073954843
0.025478501 -0.084580302 -0.072891109
0.034899864 -0.085003801 -0.072536886
0.04546573 -0.084435977 -0.072601937
0.054237351 -0.083821356 -0.07389424
0.061445057 -0.081022844 -0.076071441
-0.07138034 -0.072173961 -0.074742779
-0.064278528 -0.074635051 -0.07349851
-0.054821908 -0.075228781 -0.072572544
-0.04430607 -0.075414307 -0.07312841
-0.035214338 -0.075353488 -0.074896716
-0.025626367 -0.077178903 -0.075089864
-0.015068482 -0.076829664 -0.076151334
-0.0046401587 -0.077971928 -0.074946992
0.0049511832 -0.076168992 -0.076226473
0.014197819 -0.077079386 -0.075989343
0.025888382 -0.076713823 -0.074140474
0.035596829 -0.075313061 -0.074876212
0.045286573 -0.074560262 -0.073448516
0.054828838 -0.075570025 -0.071998723
0.064480193 -0.074493304 -0.07399752
0.071628995 -0.071953177 -0.075129956
-0.080866359 -0.061451409 -0.075110175
-0.074557513 -0.064363576 -0.07381361
-0.064984404 -0.064681575 -0.072435983
-0.055261198 -0.065250866 -0.074260786
-0.045703344 -0.067126252 -0.075111382
-0.038882528 -0.069516346 -0.075748079
-0.013147375 -0.065048747 -0.07638821
-0.0026381609 -0.063053101 -0.074926965
0.0048017357 -0.063561678 -0.074915834
0.011156566 -0.065104745 -0.075821243
0.039410211 -0.069550797 -0.076770008
0.045976117 -0.06698145 -0.075337321
0.055576287 -0.064911723 -0.074203007
0.064849578 -0.06468121 -0.072989106
0.075009227 -0.064946555 -0.073927701
0.080517426 -0.062142733 -0.075071841
-0.083308406 -0.055006888 -0.074501082
-0.075159036 -0.054795586 -0.072219729
-0.064661704 -0.054620605 -0.0745508
-0.057057381 -0.056886993 -0.075050771
-0.012718835 -0.054904934 -0.076225609
-0.0057058637 -0.054764353 -0.076166235
0.00483518 -0.055349953 -0.075260825
0.011031105 -0.057966426 -0.075329721
0.057155814 -0.056952111 -0.075229041
0.064818047 -0.055001397 -0.074702293
0.074735083 -0.054337017 -0.072324485
0.083759159 -0.053740397 -0.074478641
-0.091367476 -0.044154704 -0.07414066
-0.084592409 -0.04528955 -0.072713546
-0.074237309 -0.045017552 -0.073974028
-0.06647753 -0.046517327 -0.075054072
-0.022394456 -0.041988574 -0.077203348
-0.01498477 -0.04391944 -0.076460265
-0.0043497216 -0.045612652 -0.075377584
0.0037820614 -0.044614073 -0.075083204
0.014200818 -0.04420935 -0.077062324
0.023217198 -0.041617088 -0.077518918
0.066633619 -0.045786101 -0.075059555
0.074900754 -0.044713251 -0.073560491
0.085197218 -0.045158412 -0.072794817
0.091653742 -0.043114431 -0.074514158
-0.093536094 -0.034491193 -0.074723877
-0.0847532 -0.035038169 -0.072227642
-0.074926525 -0.03582602 -0.075050607
-0.06960699 -0.039381295 -0.074359737
-0.033624131 -0.033323646 -0.077452742
-0.025251586 -0.0352799 -0.074979328
-0.016157016 -0.035906237 -0.073933549
-0.0054734694 -0.038415398 -0.072660103
0.0058090831 -0.038563155 -0.073291183
0.015514317 -0.035600055 -0.073335662
0.025155695 -0.034338079 -0.075558029
0.032844413 -0.033728682 -0.076589264
0.069360331 -0.039333381 -0.077667192
0.075823113 -0.035268962 -0.074723147
0.084838629 -0.034623526 -0.072389446
0.093954287 -0.034549892 -0.07474979
-0.09492068 -0.024980078 -0.073168933
-0.084194712 -0.024618095 -0.073605068
-0.077155359 -0.024663245 -0.07539738
-0.041564051 -0.022780523 -0.077646211
-0.034340139 -0.024580929 -0.07506948
-0.025024999 -0.025731111 -0.072629221
-0.016626658 -0.025260486 -0.071356796
0.017045541 -0.025560249 -0.071629278
0.02557837 -0.024528474 -0.072183996
0.034647331 -0.024413563 -0.074729756
0.042039569 -0.021955118 -0.077084944
0.077044204 -0.025653927 -0.075491086
0.084285915 -0.024713516 -0.073110327
0.095057636 -0.024581242 -0.073613785
-0.10068231 -0.01489418 -0.073777027
-0.095258087 -0.01453912 -0.072553538
-0.084918201 -0.015407144 -0.073899761
-0.078501143 -0.015426765 -0.075826019
-0.043558344 -0.015469755 -0.076842263
-0.034403007 -0.014879431 -0.072459511
-0.02504166 -0.016046554 -0.072050489
-0.011712756 -0.012111714 -0.073645853
-0.0051384927 -0.014362196 -0.074417152
0.0044471254 -0.0142816 -0.075436585
0.013003845 -0.012556974 -0.074354716
0.025348941 -0.013640138 -0.071925193
0.035418686 -0.014728895 -0.072838858
0.043913469 -0.01407687 -0.076296717
0.078613795 -0.015604603 -0.075498313
0.085297808 -0.014749975 -0.073305309
0.095342517 -0.015311649 -0.073090278
0.10060729 -0.014675522 -0.074687548
-0.10136412 -0.0054979832 -0.075097755
-0.094726779 -0.0051569194 -0.071900353
-0.085089266 -0.0048241136 -0.074363485
-0.079536058 -0.0044781342 -0.073824078
-0.044656325 -0.0047742091 -0.076617561
-0.036438733 -0.0053238505 -0.07255128
-0.02803776 -0.0057108584 -0.071608536
-0.013810961 -0.0042229071 -0.074773423
-0.0093898531 -0.0085530756 -0.07573469
0.0096227378 -0.0082611218 -0.074401468
0.013870215 -0.0046118237 -0.075718239
0.02770637 -0.0070874817 -0.071685873
0.035999574 -0.0051009376 -0.072154962
0.045257751 -0.0054363227 -0.076951876
0.079608046 -0.0054048588 -0.075279519
0.085119888 -0.0049634278 -0.073948391
0.094832204 -0.0041432213 -0.072113328
0.10130831 -0.0040436788 -0.07509198
-0.10124855 0.0053591202 -0.075496592
-0.095879793 0.0047395164 -0.072340578
-0.084899977 0.005399595 -0.07371705
-0.079656027 0.0049285339 -0.075368807
-0.06035506 0.0074572498 -0.079152718
-0.056053672 0.0059950943 -0.077940471
-0.045299608 0.004474334 -0.076456256
-0.037109032 0.0049845739 -0.073195383
-0.013549429 0.0048132669 -0.074752972
-0.0088803768 0.0091919256 -0.07698632
0.0089827748 0.0090635978 -0.072994836
0.013727019 0.003932849 -0.074795283
0.037404928 0.0038363587 -0.072782539
0.044964839 0.0051653627 -0.076554321
0.079567321 0.0050549721 -0.07495483
0.085741229 0.0047144415 -0.074521624
0.095505893 0.004949593 -0.07210584
0.10146176 0.0040978724 -0.074115224
-0.10057496 0.015893077 -0.073670946
-0.094361909 0.016098877 -0.072669454
-0.084797837 0.015556006 -0.07387007
-0.078571931 0.014885901 -0.075041085
-0.053857703 0.011115802 -0.078942381
-0.044410944 0.014573757 -0.076679483
-0.036128454 0.015748214 -0.0734208
-0.011753089 0.012075759 -0.073637486
-0.0046670828 0.013913596 -0.075144097
0.0043193945 0.013680951 -0.07504639
0.0123761 0.011571889 -0.075456738
0.036353014 0.015895167 -0.073278792
0.045757063 0.016703401 -0.075551637
0.053309403 0.016592648 -0.075923033
0.078763269 0.01445612 -0.075895742
0.08486411 0.015138258 -0.07337179
0.094921552 0.014316252 -0.072351284
0.10058113 0.015189871 -0.075864993
-0.095251143 0.024327377 -0.073523037
-0.08398132 0.024702495 -0.073191874
-0.077297151 0.024759173 -0.07446225
-0.042933598 0.021260381 -0.078341991
-0.035798647 0.023642439 -0.074523255
-0.027417975 0.027721455 -0.072966643
-0.014837851 0.028037794 -0.071845599
-0.0054584681 0.027722543 -0.071838714
0.0039827279 0.027573632 -0.071489193
0.013731557 0.028123416 -0.071957946
0.027685849 0.027666502 -0.0728774
0.035220623 0.024174131 -0.074389137
0.045877483 0.023656981 -0.075721018
0.054059349 0.024392705 -0.075827472
0.076798439 0.025793888 -0.074593246
0.083885416 0.024655046 -0.073548928
0.094796538 0.024787439 -0.073588572
-0.093702838 0.035164371 -0.074367099
-0.084891342 0.034917582 -0.072178729
-0.075405493 0.03552923 -0.074858122
-0.069460243 0.039064985 -0.075581543
-0.033293292 0.03343882 -0.077312455
-0.023740951 0.034167722 -0.074847534
-0.014755599 0.035411809 -0.073070049
-0.0055318265 0.035855874 -0.072631389
0.0055926233 0.035451218 -0.072334997
0.01415385 0.034444194 -0.073034875
0.025231946 0.035634737 -0.075767256
0.032247152 0.034118727 -0.077084549
0.06994158 0.038810201 -0.073380351
0.075000256 0.035313498 -0.074513584
0.084373698 0.034961961 -0.073082037
0.093800701 0.034393806 -0.074208729
-0.091545589 0.043661669 -0.074480921
-0.085169666 0.045073826 -0.072494745
-0.074942537 0.044715013 -0.073044039
-0.066731431 0.046002381 -0.075069889
-0.033278741 0.045578033 -0.074976347
-0.024625983 0.043855365 -0.076165922
-0.015273781 0.043514363 -0.076922543
-0.0059048738 0.044760119 -0.07654833
0.0050717504 0.045576666 -0.076824978
0.01501005 0.043841962 -0.076797307
0.025333714 0.043708593 -0.075969808
0.033351243 0.045659065 -0.074832007
0.066607527 0.045796398 -0.075077817
0.074493758 0.044974983 -0.073362283
0.084785849 0.045210492 -0.072580352
0.091495179 0.04390515 -0.07466612
-0.084207378 0.053570591 -0.073713429
-0.0750072 0.054353051 -0.072070308
-0.064953223 0.054898765 -0.073947653
-0.057044204 0.05741068 -0.074773006
-0.032142792 0.05143223 -0.076129563
-0.027283421 0.05204992 -0.074893951
0.026562573 0.051880576 -0.075122029
0.032063946 0.051512901 -0.075631835
0.056975 0.056893542 -0.075294062
0.064472549 0.055698115 -0.074745387
0.074970976 0.054485876 -0.072046727
0.083856955 0.054268371 -0.074085727
-0.080948167 0.061347093 -0.075027779
-0.074798658 0.06459786 -0.073728494
-0.064655669 0.064899184 -0.072441854
-0.055221163 0.06524232 -0.074179202
-0.045566134 0.066619977 -0.075031079
-0.039118998 0.069681183 -0.076904275
0.038759686 0.069860242 -0.074918926
0.045894701 0.066594899 -0.075700656
0.054767724 0.064850539 -0.074271515
0.064830549 0.064145938 -0.07227426
0.074759588 0.063857421 -0.073438346
0.080920883 0.061118353 -0.07564161
-0.071821265 0.071836904 -0.074490339
-0.064852402 0.074985124 -0.074065328
-0.054554567 0.075271897 -0.072468877
-0.044266459 0.074446373 -0.074064694
-0.035441354 0.075008579 -0.074525408
-0.025946565 0.077187702 -0.074329987
-0.016477885 0.07843665 -0.075625837
-0.0045073368 0.079584427 -0.074789301
0.005346607 0.079650171 -0.076238059
0.013985418 0.078679986 -0.075286053
0.025054982 0.077171706 -0.074857973
0.035554476 0.075226024 -0.074782178
0.045258757 0.074453965 -0.073589444
0.054827847 0.075538754 -0.072209708
0.065168433 0.074363604 -0.074028127
0.072329827 0.071393482 -0.0757524
-0.061406188 0.080912992 -0.074654266
-0.054625958 0.08402919 -0.074370667
-0.045830913 0.084755033 -0.07283777
-0.034195669 0.084713593 -0.071861707
-0.024983989 0.084161036 -0.073114231
-0.015098488 0.085097939 -0.073757686
-0.0049660793 0.085357346 -0.073960036
0.0051325015 0.085254923 -0.073994376
0.014251865 0.08515586 -0.073867321
0.024671013 0.084272876 -0.073125303
0.035680737 0.085275315 -0.072608165
0.045614704 0.085754029 -0.07316038
0.054025486 0.084092334 -0.073940895
0.061002366 0.081143692 -0.075666711
-0.043763287 0.091395602 -0.075073682
-0.034322422 0.093044989 -0.073346309
-0.024915989 0.09528362 -0.073739901
-0.015218508 0.094870463 -0.072808258
-0.0049164747 0.095490582 -0.072412707
0.0047441623 0.095178314 -0.072090983
0.014690468 0.094335504 -0.072371803
0.025238277 0.095116816 -0.073475398
0.034749132 0.093905158 -0.074298277
0.043316182 0.091595709 -0.073885411
-0.015363398 0.10056601 -0.074874096
-0.0062154382 0.10133577 -0.075603798
0.0043236124 0.10139943 -0.075540021
0.01474876 0.10063924 -0.075374417
-0.01413733 -0.10069595 -0.066943213
-0.0048597883 -0.10155026 -0.066807844
0.0045713005 -0.10160109 -0.067126088
0.015850501 -0.10048638 -0.066979468
-0.043276615 -0.09178745 -0.066701591
-0.034480963 -0.093393572 -0.065284468
-0.025800681 -0.096310794 -0.065307714
-0.015450943 -0.095641173 -0.063864358
-0.0052719084 -0.093692832 -0.062826328
0.0044129747 -0.094931394 -0.063148454
0.014576008 -0.095303737 -0.063672669
0.024361448 -0.095878877 -0.064960808
0.034646694 -0.09331546 -0.065125071
0.042500488 -0.092105813 -0.066940889
-0.061345331 -0.08128126 -0.067859426
-0.054331429 -0.083428152 -0.065364912
-0.045204088 -0.085172415 -0.063542381
-0.035190132 -0.084915176 -0.062204011
-0.025562961 -0.086356595 -0.062351413
-0.015728153 -0.086115591 -0.063071519
-0.005032293 -0.085480727 -0.064724572
0.0052476008 -0.086072579 -0.063769668
0.015542855 -0.086414643 -0.063560955
0.024961751 -0.087306559 -0.062468477
0.034356005 -0.085121311 -0.062268768
0.044926606 -0.085412525 -0.063943222
0.054429293 -0.084041856 -0.065981783
0.061835498 -0.080708325 -0.066851854
-0.070828356 -0.073094636 -0.067359932
-0.064561978 -0.075324766 -0.065414824
-0.054972298 -0.075391449 -0.062565871
-0.045778904 -0.076790191 -0.061957706
-0.035696007 -0.074194916 -0.068402283
-0.02515332 -0.077400483 -0.068969049
-0.013999109 -0.078987181 -0.068898246
-0.0031220517 -0.07790269 -0.066802412
0.002934787 -0.076817915 -0.06592878
0.015428599 -0.078255065 -0.06935633
0.025442185 -0.077455543 -0.069079958
0.034054447 -0.07497438 -0.067780264
0.04577826 -0.075110182 -0.06296996
0.054651793 -0.075482979 -0.062558971
0.065685131 -0.075043567 -0.065356247
0.072052084 -0.071724601 -0.067417786
-0.081260376 -0.060841311 -0.065912142
-0.076068781 -0.06427972 -0.065542273
-0.065319389 -0.065326713 -0.062363505
-0.054249763 -0.065239899 -0.065820165
-0.04519758 -0.065914668 -0.067707308
-0.034707464 -0.063493706 -0.061191171
-0.024248596 -0.062434249 -0.06297835
-0.015625032 -0.065068528 -0.06298665
-0.0055463389 -0.064376093 -0.063331597
0.0053323689 -0.06445168 -0.063190728
0.014111171 -0.064792238 -0.063081369
0.024450677 -0.063073918 -0.063313931
0.035419971 -0.064407274 -0.061778139
0.043942686 -0.065888852 -0.06667082
0.054158643 -0.062504463 -0.068073802
0.065038368 -0.065622486 -0.062356569
0.075159162 -0.064957 -0.065405115
0.081167549 -0.061518636 -0.068361573
-0.083823383 -0.054781448 -0.065844387
-0.074766569 -0.054565478 -0.063368417
-0.065164454 -0.053843427 -0.065210856
-0.057622619 -0.056158591 -0.069180369
-0.042581696 -0.05219489 -0.062834412
-0.035662942 -0.056107868 -0.063215055
-0.027666505 -0.058686145 -0.06181208
-0.012086084 -0.054132089 -0.066763647
-0.0066057551 -0.054940011 -0.064914256
0.0055278111 -0.054918673 -0.065095909
0.010836034 -0.058713529 -0.065744705
0.027469581 -0.059195649 -0.063373193
0.035646237 -0.056001693 -0.062956505
0.042695947 -0.052264623 -0.063468948
0.055888414 -0.059569143 -0.068718806
0.06571731 -0.053250134 -0.06495133
0.075308859 -0.054369565 -0.06346263
0.083974376 -0.054448716 -0.06558419
-0.091494985 -0.043819357 -0.067266919
-0.08563114 -0.045515507 -0.064256988
-0.074107297 -0.044319633 -0.064392008
-0.065833829 -0.045718312 -0.065345138
-0.05416977 -0.043635458 -0.062785693
-0.047046803 -0.047571462 -0.063005328
-0.0011483895 -0.04399002 -0.066024207
0.00076559052 -0.044161815 -0.065604568
0.046804365 -0.047386359 -0.062801272
0.05429833 -0.044101942 -0.062884159
0.06565994 -0.04606735 -0.065801702
0.074604779 -0.045686711 -0.064508274
0.086507231 -0.0463618 -0.064627357
0.091957845 -0.042444881 -0.066410422
-0.094027482 -0.035576891 -0.06606219
-0.085116014 -0.034608811 -0.062680155
-0.07391461 -0.034684204 -0.065179668
-0.064964965 -0.034785289 -0.063935004
-0.056044299 -0.035444386 -0.063482367
-0.043790814 -0.033923872 -0.064017065
-0.02416254 -0.032643653 -0.064011171
-0.01519899 -0.034624416 -0.065495327
-0.0055016899 -0.038337383 -0.065469421
0.004401152 -0.038499366 -0.064988092
0.016121356 -0.034449838 -0.066140868
0.024266874 -0.032153543 -0.065391295
0.04405193 -0.03560169 -0.063857466
0.057443999 -0.034046084 -0.063253716
0.064183049 -0.033726428 -0.063786775
0.074498944 -0.034908518 -0.064985745
0.085183904 -0.035106245 -0.062973447
0.093341619 -0.035758473 -0.065549195
-0.095462926 -0.024935136 -0.064711191
-0.086441182 -0.025207685 -0.062086884
-0.076352283 -0.02717731 -0.067310356
-0.063979149 -0.025208147 -0.063238785
-0.053539984 -0.020489212 -0.063968807
-0.042374086 -0.023923386 -0.063650444
-0.033533067 -0.022705575 -0.064681418
-0.02483424 -0.026738834 -0.06558226
-0.01557995 -0.026756942 -0.064413063
0.016341409 -0.025553258 -0.064510718
0.025842723 -0.026115343 -0.065738782
0.033339482 -0.023572339 -0.065083712
0.042783629 -0.0229434 -0.063306071
0.054191582 -0.023308922 -0.064143717
0.064005911 -0.024802584 -0.062990867
0.075305484 -0.026938034 -0.066167749
0.086629257 -0.024518587 -0.061607428
0.095479853 -0.023589604 -0.06468688
-0.10062125 -0.013994241 -0.067030355
-0.094967604 -0.015226075 -0.063621275
-0.085975744 -0.015528017 -0.06323465
-0.078601226 -0.014845256 -0.068955228
-0.065250799 -0.015120338 -0.064044192
-0.056551885 -0.018754026 -0.063956998
-0.040227626 -0.019738665 -0.064218804
-0.034377363 -0.015306838 -0.065964781
-0.021474676 -0.01444606 -0.065994933
-0.015385604 -0.015101193 -0.064976342
-0.0050949184 -0.013682433 -0.064959154
0.0049540903 -0.013756836 -0.064706862
0.016325645 -0.015354116 -0.063933775
0.021850312 -0.012997688 -0.063732438
0.035404671 -0.015481099 -0.065408193
0.054815307 -0.019461965 -0.064081065
0.065551341 -0.014334205 -0.06293422
0.079116546 -0.014221225 -0.068745375
0.084451623 -0.016262898 -0.064885624
0.095624082 -0.013830491 -0.063742258
0.10058273 -0.014327019 -0.067548074
-0.1011464 -0.0050546429 -0.066048391
-0.094214186 -0.0057072807 -0.06297563
-0.086648911 -0.0048947157 -0.063173011
-0.075550243 -0.0032453502 -0.062864013
-0.066503577 -0.0052700299 -0.062918104
-0.042394742 -0.0057762531 -0.063260302
-0.036859892 -0.0051320861 -0.065138072
-0.025884772 -0.0064431713 -0.065171055
-0.013728759 -0.0046301042 -0.06465248
-0.0088415146 -0.0092406729 -0.064817205
0.0094141588 -0.0085226726 -0.064452015
0.014039203 -0.0057005323 -0.064323001
0.026869789 -0.0047367695 -0.065454163
0.03613501 -0.00434817 -0.065104961
0.041651536 -0.0059089861 -0.062820226
0.066548258 -0.0043406216 -0.063339621
0.075221941 -0.0022648731 -0.062533274
0.085791014 -0.0038585891 -0.064264566
0.095193394 -0.0056370287 -0.063240811
0.10131173 -0.0047799805 -0.066866398
-0.10129418 0.0043017715 -0.06688799
-0.094328195 0.004597249 -0.062984981
-0.084827907 0.0046916897 -0.065550715
-0.074598618 0.0033507729 -0.062087055
-0.066656627 0.0054353396 -0.063334405
-0.036197752 0.0027337733 -0.064054243
-0.013652569 0.0038486577 -0.064799979
-0.0089446567 0.0091113215 -0.064740963
0.0087782796 0.0093200272 -0.065968201
0.014522195 0.0050498168 -0.065555863
